ply
format ascii 1.0
comment PCL generated
element vertex 1548
property float x
property float y
property float z
element face 0
element camera 0
property float view_px
property float view_py
property float view_pz
property float x_axisx
property float x_axisy
property float x_axisz
property float y_axisx
property float y_axisy
property float y_axisz
property float z_axisx
property float z_axisy
property float z_axisz
property float focal
property float scalex
property float scaley
property float centerx
property float centery
property int viewportx
property int viewporty
property float k1
property float k2
end_header
0.25028229 -0.27817065 2.2390001
0.25384405 -0.2780464 2.2379999
0.2576327 -0.27817065 2.2390001
0.26130792 -0.27817065 2.2390001
0.31234175 -0.27779791 2.2360001
0.3154467 -0.27730098 2.2320001
0.31882447 -0.27705249 2.23
0.32219565 -0.27680397 2.2279999
0.32526782 -0.27630705 2.224
0.3289184 -0.27630705 2.224
0.33212036 -0.27593434 2.221
0.3351613 -0.27543738 2.217
0.33773068 -0.27456772 2.21
0.39853263 -0.27904031 2.2460001
0.4022193 -0.27904031 2.2460001
0.40608671 -0.27916455 2.247
0.41013977 -0.27941304 2.2490001
0.41401541 -0.27953726 2.25
0.45707199 -0.29047027 2.3380001
0.45854405 -0.28897938 2.326
0.4615669 -0.28848246 2.322
0.46577919 -0.28873092 2.3239999
0.47060424 -0.28935212 2.329
0.47442719 -0.28935212 2.329
0.47948217 -0.29009756 2.335
0.48497087 -0.29109144 2.3429999
0.48944268 -0.29146418 2.346
0.43735787 -0.25058961 2.017
0.43848392 -0.24934724 2.007
0.44023746 -0.24847756 2
0.44132578 -1.4651273 11.639
0.10160103 -0.31042221 2.4660001
0.10582022 -0.31092575 2.47
0.10938528 -0.30954108 2.4590001
0.11277584 -0.30777869 2.4449999
0.11612047 -0.30601636 2.431
0.11976498 -0.30513522 2.424
0.1233865 -0.30425406 2.4170001
0.12719581 -0.3038764 2.414
0.13181026 -0.30538699 2.4260001
0.20449106 -0.32603142 2.5899999
0.20938718 -0.3270385 2.598
0.21389838 -0.32741615 2.6010001
0.21833555 -0.32766789 2.6029999
0.22277927 -0.32791963 2.605
0.2272296 -0.3281714 2.6070001
0.23150885 -0.3281714 2.6070001
0.23587854 -0.32829729 2.608
0.24034362 -0.32854903 2.6099999
0.24462779 -0.32854903 2.6099999
0.24900736 -0.32867494 2.6110001
0.25319615 -0.32854903 2.6099999
0.25738168 -0.32842317 2.609
0.26166424 -0.32842317 2.609
0.26564097 -0.32804552 2.6059999
0.269815 -0.32791963 2.605
0.25050586 -0.28209901 2.2409999
0.25418434 -0.28209901 2.2409999
0.25797793 -0.28222489 2.2420001
0.31206235 -0.28121784 2.234
0.3154467 -0.28096607 2.2320001
0.31896743 -0.28084022 2.2309999
0.32234028 -0.28058845 2.2290001
0.32541406 -0.28008491 2.2249999
0.3289184 -0.27995902 2.224
0.33241946 -0.27983317 2.223
0.33546367 -0.27932966 2.2190001
0.39888746 -0.28298017 2.2479999
0.40257743 -0.28298017 2.2479999
0.40644819 -0.28310606 2.2490001
0.41068691 -0.28348371 2.2520001
0.41493547 -0.28386134 2.2550001
0.46039543 -0.29644942 2.355
0.46110681 -0.29443535 2.339
0.46335596 -0.2934283 2.3310001
0.46698171 -0.29330242 2.3299999
0.47100839 -0.2934283 2.3310001
0.47544575 -0.29380596 2.3340001
0.48071426 -0.29468709 2.3410001
0.48683375 -0.2960718 2.352
0.4925721 -0.29720473 2.3610001
0.43605685 -0.25314641 2.0109999
0.43761 -0.25213936 2.003
0.4395771 -0.25138408 1.997
0.385331 -1.4893404 11.679
0.10147743 -0.314089 2.4630001
0.10556316 -0.31421652 2.464
0.10907388 -0.31268623 2.4519999
0.11259135 -0.3112835 2.441
0.11597716 -0.30962572 2.428
0.11946853 -0.30835047 2.418
0.12313124 -0.30758533 2.4119999
0.12672159 -0.30669266 2.405
0.1310496 -0.30758533 2.4119999
0.20930658 -0.33117706 2.5969999
0.21398063 -0.33181471 2.602
0.21841943 -0.33206975 2.6040001
0.22277927 -0.33219725 2.605
0.22731675 -0.33257985 2.608
0.23159763 -0.33257985 2.608
0.23587854 -0.33257985 2.608
0.24034362 -0.33283487 2.6099999
0.24462779 -0.33283487 2.6099999
0.24900736 -0.33296239 2.6110001
0.25329319 -0.33296239 2.6110001
0.257579 -0.33296239 2.6110001
0.26206538 -0.33321744 2.6129999
0.26625261 -0.33308992 2.612
0.27054006 -0.33308992 2.612
0.32627711 -0.33308992 2.612
0.33056456 -0.33308992 2.612
0.33369824 -0.3319422 2.6029999
0.31220201 -0.28501377 2.2349999
0.31558803 -0.28475875 2.233
0.31911042 -0.28463122 2.2320001
0.32234028 -0.28424865 2.2290001
0.32556033 -0.28386608 2.2260001
0.32906628 -0.28373852 2.2249999
0.33241946 -0.28348351 2.223
0.39924237 -0.28692663 2.25
0.40293562 -0.28692663 2.25
0.40717107 -0.2873092 2.253
0.41159868 -0.28781927 2.257
0.4636696 -0.29993397 2.352
0.46454859 -0.29802111 2.3369999
0.46738255 -0.29738349 2.332
0.47161457 -0.29763857 2.3340001
0.47605675 -0.29802111 2.3369999
0.48153564 -0.2990413 2.345
0.48745474 -0.30031651 2.355
0.4349727 -0.25581104 2.006
0.43695459 -0.25504589 2
0.43891677 -0.25428075 1.994
0.34746543 -1.5105848 11.695
0.36616054 -1.5085182 11.679
0.38467118 -1.5059351 11.659
0.10143622 -0.31800428 2.4619999
0.10534895 -0.31761682 2.4590001
0.1090294 -0.31658345 2.451
0.11259135 -0.31529182 2.441
0.11597716 -0.31361267 2.428
0.11927089 -0.31180435 2.414
0.12282494 -0.31077102 2.4059999
0.12651083 -0.31012523 2.401
0.13066927 -0.31064188 2.405
0.16156839 -0.30198783 2.3380001
0.16448639 -0.30030867 2.325
0.21389838 -0.33595824 2.6010001
0.21833555 -0.33621654 2.6029999
0.22277927 -0.3364749 2.605
0.22714241 -0.33660403 2.6059999
0.23133124 -0.3364749 2.605
0.23560721 -0.3364749 2.605
0.24006738 -0.33673322 2.6070001
0.24434662 -0.33673322 2.6070001
0.24891198 -0.33712068 2.6099999
0.25319615 -0.33712068 2.6099999
0.257579 -0.33724988 2.6110001
0.26206538 -0.33750817 2.6129999
0.26625261 -0.33737904 2.612
0.27074721 -0.33763736 2.6140001
0.32100347 -0.33634573 2.6040001
0.32540271 -0.3364749 2.605
0.32929903 -0.33608738 2.602
0.33382648 -0.33634573 2.6040001
0.33836046 -0.33660403 2.6059999
0.31601202 -0.28881299 2.2360001
0.31953928 -0.2886838 2.2349999
0.32262951 -0.28816715 2.2309999
0.32614535 -0.28803802 2.23
0.32995364 -0.28816715 2.2309999
0.40807465 -0.29165462 2.2579999
0.46704233 -0.30857521 2.3889999
0.46544391 -0.30495861 2.3610001
0.46554253 -0.30250448 2.342
0.46798381 -0.30160031 2.335
0.47201866 -0.30172947 2.336
0.47626054 -0.30198783 2.3380001
0.48379445 -0.30431277 2.3559999
0.48890364 -0.30508777 2.362
0.43453899 -0.2588467 2.0039999
0.43651763 -0.25807172 1.998
0.4384765 -0.25729671 1.992
0.34687123 -1.5271729 11.675
0.36556485 -1.5252107 11.66
0.10139503 -0.32191628 2.461
0.10513475 -0.32100061 2.454
0.10894043 -0.32034656 2.4489999
0.11254522 -0.31916934 2.4400001
0.11588164 -0.31733802 2.4260001
0.11922149 -0.31563756 2.4130001
0.1227739 -0.31459108 2.405
0.12651083 -0.31406787 2.401
0.13056062 -0.31432948 2.4030001
0.1349528 -0.31537592 2.411
0.16163749 -0.30595782 2.339
0.16427416 -0.30373406 2.322
0.16750649 -0.30268762 2.3139999
0.2137339 -0.33996764 2.599
0.21816781 -0.34022927 2.6010001
0.22277927 -0.34075251 2.605
0.22714241 -0.34088328 2.6059999
0.23124245 -0.34062171 2.6040001
0.23560721 -0.34075251 2.605
0.24015944 -0.34114492 2.608
0.24453408 -0.34127572 2.609
0.24881659 -0.34127572 2.609
0.25329319 -0.34153733 2.6110001
0.25777629 -0.34179893 2.6129999
0.26226598 -0.34206057 2.615
0.26645648 -0.34192976 2.6140001
0.27064362 -0.34179893 2.6129999
0.27493271 -0.34179893 2.6129999
0.31648588 -0.34036008 2.602
0.32075691 -0.34036008 2.602
0.32515287 -0.34049088 2.6029999
0.32891935 -0.33996764 2.599
0.33344185 -0.34022927 2.6010001
0.33797097 -0.34049088 2.6029999
0.34263808 -0.34088328 2.6059999
0.34704885 -0.34101415 2.6070001
0.35105857 -0.34075251 2.605
0.31982523 -0.2926155 2.237
0.32306334 -0.29222307 2.234
0.32643786 -0.29196146 2.2320001
0.47052389 -0.32296273 2.4690001
0.47342333 -0.32217792 2.4630001
0.47533378 -0.320739 2.4519999
0.46603531 -0.30922797 2.3640001
0.46653637 -0.30700424 2.3469999
0.46838465 -0.30569616 2.3369999
0.47242281 -0.30582702 2.3380001
0.47687164 -0.30621943 2.3410001
0.48379445 -0.30818152 2.3559999
0.49035254 -0.30988201 2.369
0.43367168 -0.2616142 2
0.43586218 -0.26096016 1.995
0.43825638 -0.26043692 1.9910001
0.34639585 -1.5442251 11.659
0.1053061 -0.32556009 2.4579999
0.10894043 -0.324368 2.4489999
0.11263747 -0.32344088 2.4419999
0.11592939 -0.32145417 2.427
0.11912267 -0.31933498 2.411
0.12262075 -0.31814292 2.402
0.12630007 -0.31748071 2.3970001
0.13023463 -0.31748071 2.3970001
0.13444903 -0.31814292 2.402
0.16399117 -0.30701721 2.3180001
0.16699976 -0.30556023 2.3069999
0.17063853 -0.30529538 2.3050001
0.22260824 -0.34476519 2.6029999
0.22688092 -0.34476519 2.6029999
0.23115361 -0.34476519 2.6029999
0.23551677 -0.34489766 2.6040001
0.24025154 -0.3455599 2.609
0.24462779 -0.34569234 2.6099999
0.24900736 -0.34582481 2.6110001
0.25339016 -0.34595725 2.612
0.25787497 -0.34622216 2.6140001
0.26236627 -0.34648705 2.6159999
0.26666033 -0.34648705 2.6159999
0.27085078 -0.3463546 2.615
0.27493271 -0.34608969 2.6129999
0.31245479 -0.34489766 2.6040001
0.31660751 -0.34476519 2.6029999
0.32075691 -0.34463277 2.602
0.32515287 -0.34476519 2.6029999
0.32904589 -0.34436786 2.5999999
0.33344185 -0.34450033 2.6010001
0.33797097 -0.34476519 2.6029999
0.34237513 -0.34489766 2.6040001
0.34664947 -0.34489766 2.6040001
0.35065427 -0.34463277 2.602
0.35437971 -0.34410298 2.598
0.41201052 -0.34238112 2.585
0.41577056 -0.3419838 2.582
0.41984615 -0.34185132 2.5810001
0.4240827 -0.34185132 2.5810001
0.42765546 -0.34132153 2.5769999
0.4317179 -0.34118909 2.576
0.46930507 -0.32900375 2.484
0.47338244 -0.32900375 2.484
0.47457662 -0.32701704 2.4690001
0.47707847 -0.32595742 2.461
0.46633762 -0.31072578 2.346
0.46878552 -0.30979863 2.339
0.47282693 -0.30993107 2.3399999
0.47789013 -0.31072578 2.346
0.48399982 -0.31218272 2.3570001
0.49055952 -0.31390455 2.3699999
0.43189514 -0.26582551 2.007
0.43302116 -0.26450101 1.997
0.43542522 -0.26397121 1.993
0.43781617 -0.26344141 1.989
0.34595019 -1.5613587 11.644
0.10522043 -0.32932815 2.4560001
0.10898492 -0.32852361 2.45
0.11263747 -0.32745084 2.4419999
0.11602493 -0.32570767 2.4289999
0.11917207 -0.32342809 2.4119999
0.12246761 -0.32168493 2.3989999
0.12608929 -0.32088038 2.3929999
0.12996295 -0.3207463 2.392
0.13405722 -0.32114857 2.395
0.16384967 -0.31055537 2.316
0.16663782 -0.30867809 2.302
0.17019436 -0.30827579 2.299
0.17502744 -0.3101531 2.313
0.24025154 -0.3498441 2.609
0.24481525 -0.35024637 2.612
0.24900736 -0.35011226 2.6110001
0.25368121 -0.35064864 2.615
0.25787497 -0.35051456 2.6140001
0.26246658 -0.35091683 2.6170001
0.26666033 -0.35078272 2.6159999
0.27085078 -0.35064864 2.615
0.27493271 -0.35038045 2.6129999
0.30818045 -0.34917364 2.6040001
0.31245479 -0.34917364 2.6040001
0.31660751 -0.34903955 2.6029999
0.32088017 -0.34903955 2.6029999
0.32502797 -0.34890544 2.602
0.32929903 -0.34890544 2.602
0.33357006 -0.34890544 2.602
0.33810079 -0.34917364 2.6040001
0.34250662 -0.34930772 2.605
0.34678257 -0.34930772 2.605
0.35051951 -0.34877136 2.6010001
0.35410687 -0.3481009 2.596
0.40211928 -0.34541908 2.576
0.40650538 -0.34555316 2.5769999
0.41137296 -0.34608957 2.5810001
0.41496542 -0.34555316 2.5769999
0.41870743 -0.34515089 2.5739999
0.42260391 -0.34488273 2.572
0.42632788 -0.34448045 2.569
0.42987436 -0.34394407 2.5650001
0.43239239 -0.34260318 2.5550001
0.46691334 -0.33428952 2.493
0.47100547 -0.33428952 2.493
0.47452587 -0.33388725 2.49
0.47630653 -0.33227813 2.4779999
0.47688466 -0.3298645 2.46
0.47271174 -0.32423267 2.418
0.4672181 -0.31779626 2.3699999
0.46574125 -0.31417578 2.3429999
0.46858507 -0.31350538 2.3380001
0.47302899 -0.31390765 2.3410001
0.47931609 -0.31551674 2.3529999
0.4848212 -0.31658944 2.3610001
0.49014553 -0.3175281 2.368
0.43211034 -0.26925525 2.0079999
0.43302116 -0.26778024 1.997
0.43520677 -0.26710978 1.992
0.43759605 -0.26657343 1.988
0.34562337 -1.5789859 11.633
0.36434212 -1.5773572 11.621
0.10496338 -0.33254668 2.45
0.10894043 -0.33241093 2.4489999
0.11263747 -0.3314608 2.4419999
0.11612047 -0.32996774 2.431
0.11922149 -0.32752457 2.4130001
0.12241655 -0.32548854 2.398
0.12598391 -0.32453841 2.391
0.12974563 -0.32413122 2.388
0.13383332 -0.32453841 2.391
0.13850702 -0.32630295 2.404
0.14423078 -0.33037496 2.434
0.16045259 -0.33933336 2.5
0.1639204 -0.31449413 2.3169999
0.16656545 -0.31232241 2.3010001
0.17004628 -0.31177947 2.2969999
0.17427073 -0.31259388 2.303
0.24891198 -0.35426399 2.6099999
0.25348717 -0.35467121 2.6129999
0.25807226 -0.3550784 2.6159999
0.26226598 -0.35494268 2.615
0.26645648 -0.35480696 2.6140001
0.27054006 -0.35453549 2.612
0.31233478 -0.35331386 2.6029999
0.31672916 -0.35344961 2.6040001
0.32088017 -0.35331386 2.6029999
0.32515287 -0.35331386 2.6029999
0.32917246 -0.35304242 2.6010001
0.33344185 -0.35304242 2.6010001
0.33810079 -0.35344961 2.6040001
0.34250662 -0.35358536 2.605
0.34664947 -0.35344961 2.6040001
0.35038471 -0.35290664 2.5999999
0.35410687 -0.35236374 2.596
0.39804536 -0.34978479 2.5769999
0.40227538 -0.34978479 2.5769999
0.40650538 -0.34978479 2.5769999
0.41105419 -0.35005626 2.579
0.41464341 -0.34951335 2.575
0.41821948 -0.34897041 2.5710001
0.422111 -0.34869894 2.569
0.42616192 -0.34856322 2.5680001
0.42937163 -0.34774882 2.562
0.43205386 -0.34652722 2.553
0.43436491 -0.34503415 2.5420001
0.46393511 -0.33919761 2.4990001
0.46822438 -0.33933336 2.5
0.47195008 -0.33906186 2.4979999
0.47490704 -0.33824748 2.4920001
0.47726762 -0.33702588 2.483
0.47591534 -0.33322534 2.4549999
0.46469638 -0.32263815 2.3770001
0.4630782 -0.31883761 2.349
0.46454859 -0.3172088 2.3369999
0.46838465 -0.3172088 2.3369999
0.47302899 -0.31775177 2.3410001
0.47951981 -0.3195163 2.3540001
0.48502654 -0.32060215 2.362
0.49014553 -0.32141656 2.368
0.43211034 -0.27255252 2.0079999
0.43367168 -0.27146667 2
0.43542522 -0.27051654 1.993
0.43759605 -0.26983789 1.988
0.34556395 -1.5978134 11.631
0.36440483 -1.5967145 11.623
0.38305447 -1.5949285 11.61
0.40173075 -1.5934175 11.599
0.10907388 -0.3368445 2.4519999
0.11282197 -0.33602029 2.4460001
0.11626375 -0.33437178 2.434
0.11941912 -0.33203641 2.4170001
0.12241655 -0.32942626 2.398
0.12582585 -0.32805249 2.388
0.12947395 -0.32736561 2.3829999
0.13355346 -0.32777771 2.3859999
0.13798849 -0.32901412 2.395
0.14334193 -0.33231112 2.4189999
0.15005301 -0.33849305 2.464
0.15572357 -0.3420648 2.49
0.16038841 -0.34330118 2.4990001
0.1639204 -0.31829885 2.3169999
0.16656545 -0.31610087 2.3010001
0.17004628 -0.31555134 2.2969999
0.17396805 -0.31582609 2.299
0.1786695 -0.3174746 2.3110001
0.25290516 -0.35813773 2.6070001
0.25728306 -0.35827509 2.608
0.26126307 -0.35786295 2.605
0.26625261 -0.35882458 2.612
0.26991859 -0.35800031 2.6059999
0.31648588 -0.35745084 2.602
0.32075691 -0.35745084 2.602
0.32490304 -0.35731345 2.6010001
0.32904589 -0.35717607 2.5999999
0.33344185 -0.35731345 2.6010001
0.33797097 -0.3575882 2.6029999
0.34237513 -0.35772562 2.6040001
0.34638321 -0.35745084 2.602
0.35038471 -0.35717607 2.5999999
0.35410687 -0.35662657 2.596
0.39804536 -0.35401645 2.5769999
0.40227538 -0.35401645 2.5769999
0.40618992 -0.35374171 2.575
0.41041663 -0.35374171 2.575
0.41399929 -0.35319221 2.5710001
0.41789412 -0.35291746 2.569
0.42178234 -0.35264269 2.5669999
0.4254981 -0.35223055 2.5639999
0.42870125 -0.35140634 2.5580001
0.43171543 -0.3504447 2.5510001
0.46449202 -0.34371331 2.5020001
0.46859896 -0.34371331 2.5020001
0.47213909 -0.34330118 2.4990001
0.47452587 -0.3420648 2.49
0.47669095 -0.34069103 2.48
0.47358912 -0.33560815 2.4430001
0.46169823 -0.32173324 2.342
0.46395227 -0.32063425 2.3340001
0.46838465 -0.32104635 2.3369999
0.47323108 -0.32173324 2.342
0.47911239 -0.32310697 2.352
0.48523188 -0.3246181 2.3629999
0.49035254 -0.32544237 2.369
0.49528429 -0.32612926 2.3740001
0.43189514 -0.27571246 2.007
0.43323803 -0.27447608 1.998
0.43542522 -0.2737892 1.993
0.4373759 -0.27296495 1.987
0.34538567 -1.6160784 11.625
0.36427942 -1.6152444 11.619
0.3830215 -1.6138542 11.609
0.40166146 -1.612186 11.597
0.45726585 -1.6069033 11.559
0.49367058 -1.6018986 11.523
0.11282197 -0.34003681 2.4460001
0.11640706 -0.33878565 2.437
0.11951793 -0.3362833 2.4189999
0.1223655 -0.33322495 2.3970001
0.12566777 -0.33155671 2.385
0.12931097 -0.33086166 2.3800001
0.13338552 -0.33127868 2.3829999
0.13758519 -0.33197379 2.388
0.14274935 -0.33489314 2.4089999
0.14913954 -0.34045383 2.4489999
0.15522327 -0.34504142 2.4820001
0.16026004 -0.34712669 2.497
0.16384967 -0.32196453 2.316
0.16634828 -0.31946221 2.2980001
0.16997226 -0.31918418 2.296
0.17366537 -0.31904516 2.2950001
0.25232309 -0.36158451 2.6010001
0.2567898 -0.36186254 2.6029999
0.2606613 -0.36130649 2.599
0.26523325 -0.36172351 2.602
0.31636423 -0.36158451 2.6010001
0.32075691 -0.36172351 2.602
0.32490304 -0.36158451 2.6010001
0.32904589 -0.36144546 2.5999999
0.33344185 -0.36158451 2.6010001
0.33771127 -0.36158451 2.6010001
0.3419807 -0.36158451 2.6010001
0.34611696 -0.36144546 2.5999999
0.34998044 -0.36102843 2.5969999
0.35397047 -0.36075041 2.595
0.39773646 -0.35797006 2.575
0.4019632 -0.35797006 2.575
0.40603215 -0.35783103 2.5739999
0.41009787 -0.357692 2.573
0.41367722 -0.35713595 2.569
0.41740611 -0.3567189 2.566
0.42128941 -0.35644084 2.5639999
0.42516622 -0.35616282 2.562
0.42870125 -0.35560676 2.5580001
0.43120775 -0.35421661 2.5480001
0.46130517 -0.34851688 2.507
0.46523467 -0.34837785 2.506
0.46878627 -0.3479608 2.503
0.47157228 -0.34698766 2.4960001
0.47204843 -0.34434631 2.477
0.45844045 -0.32599604 2.345
0.45913544 -0.32377174 2.329
0.46355468 -0.3241888 2.332
0.46798381 -0.32460588 2.335
0.47323108 -0.32557899 2.342
0.47911239 -0.32696915 2.352
0.48461583 -0.32808128 2.3599999
0.49014553 -0.32919341 2.368
0.43211034 -0.27914712 2.0079999
0.43323803 -0.27775696 1.998
0.43520677 -0.27692285 1.992
0.4373759 -0.27622777 1.987
0.34523714 -1.6344643 11.62
0.3640286 -1.6331983 11.611
0.38285652 -1.6322137 11.604
0.40148827 -1.6305258 11.592
0.41997179 -1.6284159 11.577
0.43848196 -1.6265874 11.564
0.45698893 -1.6248994 11.552
0.47483855 -1.6211016 11.525
0.49349922 -1.6202577 11.519
0.51205117 -1.6191323 11.511
0.11976498 -0.3409588 2.424
0.12241655 -0.33730167 2.398
0.12550969 -0.33505109 2.382
0.1290393 -0.33406648 2.375
0.13293774 -0.33406648 2.375
0.13712427 -0.33476982 2.3800001
0.14203829 -0.337161 2.3970001
0.14810427 -0.34208408 2.4319999
0.15441024 -0.34728852 2.4690001
0.15968241 -0.34996101 2.4879999
0.16343723 -0.34925774 2.483
0.1639204 -0.32590821 2.3169999
0.16642067 -0.32337636 2.299
0.16989824 -0.32281372 2.2950001
0.17351402 -0.32253239 2.293
0.17735517 -0.32267305 2.2939999
0.25154701 -0.36473027 2.5929999
0.25609922 -0.36515224 2.596
0.26005954 -0.36473027 2.5929999
0.2644178 -0.36487097 2.5940001
0.24704766 -0.31549942 2.243
0.32540271 -0.36641821 2.605
0.32942554 -0.36613688 2.6029999
0.33369824 -0.36613688 2.6029999
0.33810079 -0.36627755 2.6040001
0.34224364 -0.36613688 2.6029999
0.34625012 -0.36585557 2.6010001
0.34984571 -0.36515224 2.596
0.39773646 -0.36219841 2.575
0.40180704 -0.36205775 2.5739999
0.4058744 -0.36191708 2.573
0.40993848 -0.36177644 2.572
0.41351619 -0.3612138 2.5680001
0.41708076 -0.36065114 2.5639999
0.42096081 -0.36036983 2.562
0.42466834 -0.35994786 2.559
0.42836607 -0.35952586 2.556
0.46130517 -0.35263354 2.507
0.46560591 -0.3527742 2.5079999
0.46878627 -0.3520709 2.503
0.47006077 -0.34996101 2.4879999
0.46938041 -0.34644455 2.4630001
0.46189049 -0.33800498 2.4030001
0.45517281 -0.33026868 2.348
0.45531249 -0.32759616 2.329
0.45834687 -0.32703352 2.325
0.4625608 -0.32731482 2.3269999
0.46758297 -0.32815877 2.3329999
0.47323108 -0.32942471 2.342
0.47911239 -0.33083132 2.352
0.48461583 -0.3319566 2.3599999
0.43232551 -0.28258508 2.0090001
0.43345481 -0.28117847 1.999
0.43498826 -0.28005323 1.9910001
0.43693569 -0.27920926 1.985
0.34491032 -1.65198 11.609
0.36384046 -1.6514106 11.605
0.38272455 -1.6506993 11.6
0.40131512 -1.6488492 11.587
0.41979042 -1.6467147 11.572
0.43829235 -1.6448648 11.559
0.45675161 -1.6430148 11.546
0.47450894 -1.6388881 11.517
0.49324214 -1.6383189 11.513
0.51187325 -1.6374651 11.507
0.12001201 -0.3456507 2.4289999
0.12262075 -0.34180856 2.402
0.12545702 -0.33882025 2.381
0.12898497 -0.33782414 2.3740001
0.13288178 -0.33782414 2.3740001
0.13689379 -0.33810872 2.3759999
0.14156422 -0.33995864 2.3889999
0.1473126 -0.34422767 2.4189999
0.15353468 -0.34935057 2.4549999
0.15897642 -0.35248122 2.477
0.16323976 -0.3529081 2.48
0.16454452 -0.3470737 2.4389999
0.16399117 -0.32985526 2.3180001
0.16649304 -0.32729378 2.3
0.1698242 -0.32643998 2.2939999
0.17336267 -0.32601306 2.2909999
0.17712323 -0.32601306 2.2909999
0.25028586 -0.36713827 2.5799999
0.25531003 -0.36827669 2.5880001
0.2594578 -0.36813438 2.5869999
0.26360229 -0.36799207 2.586
0.24347438 -0.31932491 2.244
0.24693753 -0.31904033 2.2420001
0.25028229 -0.31861341 2.2390001
0.39773646 -0.36642677 2.575
0.4019632 -0.36642677 2.575
0.40571669 -0.36599988 2.572
0.40993848 -0.36599988 2.572
0.41335514 -0.36528832 2.5669999
0.41675544 -0.36457685 2.562
0.42046788 -0.36414993 2.559
0.46486333 -0.35632333 2.5039999
0.46803707 -0.35561183 2.4990001
0.46817148 -0.35262349 2.4779999
0.46404439 -0.34650451 2.4349999
0.45670065 -0.33810872 2.3759999
0.45245889 -0.33213207 2.3340001
0.45374852 -0.33028215 2.3210001
0.45755836 -0.33028215 2.3210001
0.46216327 -0.33085138 2.325
0.46718219 -0.33170518 2.3310001
0.47343311 -0.33341277 2.3429999
0.47931609 -0.3348358 2.3529999
0.48461583 -0.33583191 2.3599999
0.43189514 -0.28559941 2.007
0.43302116 -0.28417641 1.997
0.43476981 -0.2831803 1.99
0.4362753 -0.28204188 1.982
0.34446466 -1.6688837 11.594
0.36343291 -1.6685958 11.592
0.38226265 -1.6677322 11.586
0.40076095 -1.665573 11.571
0.41924629 -1.6635578 11.557
0.43776152 -1.6618304 11.545
0.45615819 -1.6598152 11.531
0.47397333 -1.6559286 11.504
0.49259955 -1.6550651 11.498
0.12556238 -0.34301791 2.3829999
0.1290393 -0.34186637 2.375
0.13288178 -0.34172246 2.3740001
0.13689379 -0.34201029 2.3759999
0.14138645 -0.34344974 2.3859999
0.14670362 -0.34676042 2.4089999
0.15278421 -0.35165456 2.4430001
0.15827043 -0.35496527 2.4660001
0.16277902 -0.35597286 2.473
0.16413265 -0.33394945 2.3199999
0.16649304 -0.33107057 2.3
0.16975017 -0.33006299 2.293
0.17321134 -0.3294872 2.289
0.1768913 -0.32934329 2.2880001
0.2495098 -0.37022328 2.572
0.25422484 -0.37094301 2.5769999
0.25885606 -0.37151879 2.5810001
0.26258296 -0.37079903 2.576
0.24379988 -0.32344157 2.247
0.2471578 -0.32300973 2.244
0.25061765 -0.32272187 2.2420001
0.39742753 -0.37036723 2.573
0.40165097 -0.37036723 2.573
0.40603215 -0.37051114 2.5739999
0.40993848 -0.37022328 2.572
0.41303313 -0.36921567 2.5650001
0.41659278 -0.36863992 2.5610001
0.45445457 -0.35870782 2.4920001
0.46020111 -0.36000326 2.5009999
0.46374947 -0.35957143 2.4979999
0.46672609 -0.35870782 2.4920001
0.46495965 -0.35424554 2.461
0.45775548 -0.34575287 2.402
0.4526642 -0.3389875 2.355
0.45090801 -0.33481312 2.326
0.45355302 -0.33394945 2.3199999
0.45736119 -0.33394945 2.3199999
0.46236202 -0.33481312 2.326
0.46798381 -0.33610862 2.335
0.47444347 -0.33797988 2.348
0.47992715 -0.33913144 2.3559999
0.42838719 -0.28875113 2.006
0.42995837 -0.28759956 1.998
0.4315033 -0.28644803 1.99
0.43345892 -0.28558436 1.984
0.43561497 -0.28486463 1.979
0.34395957 -1.685447 11.577
0.36280587 -1.684719 11.572
0.38166875 -1.6841366 11.568
0.40027606 -1.6825353 11.557
0.41873842 -1.6804971 11.543
0.43719271 -1.6786044 11.53
0.45560437 -1.6767118 11.517
0.47364375 -1.6736546 11.496
0.49199975 -1.6719075 11.484
0.12566777 -0.34722218 2.385
0.12898497 -0.34562072 2.3740001
0.13282579 -0.34547514 2.3729999
0.13683619 -0.34576631 2.375
0.14126794 -0.34707659 2.3840001
0.14627732 -0.34969711 2.402
0.15209627 -0.35406467 2.4319999
0.15762863 -0.35755879 2.4560001
0.16244988 -0.35930577 2.4679999
0.16413265 -0.33775908 2.3199999
0.16634828 -0.33455622 2.2980001
0.16960211 -0.33353707 2.2909999
0.17298432 -0.33280918 2.286
0.17665938 -0.3326636 2.2850001
0.25383025 -0.3745923 2.573
0.25815398 -0.37473789 2.5739999
0.26135972 -0.37328202 2.5639999
0.24390839 -0.32727692 2.2479999
0.24726793 -0.32684013 2.2449999
0.25106478 -0.32698575 2.2460001
0.3839567 -0.32713133 2.247
0.38833508 -0.32771367 2.2509999
0.45263094 -0.36134401 2.4820001
0.45872909 -0.36294544 2.493
0.46189296 -0.36221749 2.4879999
0.46073279 -0.35814112 2.46
0.45127603 -0.34474719 2.368
0.44862771 -0.33979732 2.3340001
0.44974485 -0.33775908 2.3199999
0.45277107 -0.33717674 2.316
0.45755836 -0.33790469 2.3210001
0.4629584 -0.33906937 2.329
0.46898594 -0.34067079 2.3399999
0.47545373 -0.34256342 2.3529999
0.48094574 -0.34372813 2.3610001
0.42753303 -0.29146281 2.0020001
0.42888242 -0.29015252 1.993
0.43020228 -0.28884226 1.984
0.43236655 -0.28811434 1.979
0.43473449 -0.287532 1.975
0.34336537 -1.7015128 11.557
0.36205345 -1.7001878 11.548
0.3808769 -1.6995987 11.544
0.39951408 -1.6982738 11.535
0.41797662 -1.6963599 11.522
0.43643442 -1.6945931 11.51
0.45493189 -1.6931207 11.5
0.47335535 -1.6915014 11.489
0.49157128 -1.6892928 11.474
0.12582585 -0.3515802 2.388
0.12909363 -0.34981346 2.3759999
0.13293774 -0.34966624 2.375
0.13689379 -0.34981346 2.3759999
0.14114943 -0.35069683 2.382
0.14591193 -0.35275802 2.3959999
0.15147088 -0.35658595 2.4219999
0.15711518 -0.36041388 2.448
0.16205496 -0.36247504 2.4619999
0.16484012 -0.34304097 2.3299999
0.16671021 -0.33906585 2.303
0.16967615 -0.33744633 2.2920001
0.17305999 -0.33671018 2.2869999
0.17650473 -0.33612126 2.283
0.18017322 -0.33597407 2.2820001
0.25775281 -0.37837568 2.5699999
0.26085007 -0.37675616 2.559
0.24085954 -0.33185166 2.2539999
0.24358287 -0.33052662 2.2449999
0.24693753 -0.33008495 2.2420001
0.2508412 -0.33037937 2.244
0.37857601 -0.3293488 2.237
0.38276055 -0.32979047 2.24
0.38712749 -0.33037937 2.244
0.39272666 -0.33199891 2.2550001
0.45062488 -0.36380011 2.471
0.45633698 -0.36512518 2.48
0.45799437 -0.36321121 2.467
0.45417762 -0.35702765 2.425
0.45078984 -0.35128576 2.3859999
0.44765514 -0.34583831 2.349
0.44593671 -0.34156871 2.3199999
0.44896945 -0.34097981 2.316
0.45277107 -0.34097981 2.316
0.45795259 -0.34201038 2.323
0.46395227 -0.34362993 2.3340001
0.47018847 -0.34539664 2.346
0.47605991 -0.3468689 2.3559999
0.48114944 -0.34775227 2.362
0.42689234 -0.29430854 1.999
0.42802164 -0.29283628 1.989
0.42933497 -0.29151124 1.98
0.43149263 -0.29077509 1.975
0.43363389 -0.29003897 1.97
0.34288999 -1.7181084 11.541
0.36145774 -1.7163219 11.529
0.38025004 -1.7157264 11.525
0.39892527 -1.7146842 11.518
0.41746876 -1.7131958 11.508
0.43571398 -1.7106649 11.491
0.45429894 -1.7096227 11.484
0.47310814 -1.7094738 11.483
0.49122855 -1.7069432 11.466
0.5095157 -1.7051568 11.454
0.52794784 -1.7039657 11.446
0.1260366 -0.35609698 2.392
0.12925664 -0.35416168 2.3789999
0.13299371 -0.35371503 2.3759999
0.13683619 -0.3535662 2.375
0.1409124 -0.35401279 2.378
0.14554656 -0.35579923 2.3900001
0.15084548 -0.35907438 2.4119999
0.15647335 -0.36294499 2.438
0.16166003 -0.36562467 2.4560001
0.16548903 -0.36517805 2.4530001
0.16561835 -0.34850463 2.3410001
0.16707216 -0.3435919 2.3080001
0.16989824 -0.3416566 2.2950001
0.17313568 -0.34061453 2.2880001
0.17658204 -0.34001902 2.2839999
0.18009426 -0.3395724 2.2809999
0.2433659 -0.33391535 2.243
0.2466071 -0.33331987 2.2390001
0.25050586 -0.3336176 2.2409999
0.37023646 -0.33212891 2.2309999
0.37389854 -0.33212891 2.2309999
0.37789908 -0.33242664 2.233
0.38207707 -0.33287326 2.2360001
0.38678247 -0.33376649 2.2420001
0.39255247 -0.33555293 2.2539999
0.44825411 -0.36592239 2.4579999
0.45284083 -0.36636901 2.461
0.45223927 -0.36264727 2.4360001
0.44706064 -0.35535264 2.3870001
0.44398829 -0.34984443 2.3499999
0.44384366 -0.34671816 2.329
0.44574451 -0.34522945 2.319
0.44877559 -0.344634 2.3150001
0.45316204 -0.34508058 2.3180001
0.45874116 -0.34642044 2.3269999
0.46494618 -0.34820688 2.339
0.47219267 -0.35073766 2.3559999
0.47707024 -0.351482 2.3610001
0.48155683 -0.35192862 2.3640001
0.42582455 -0.29684672 1.994
0.42716089 -0.29550689 1.985
0.42868447 -0.29431593 1.977
0.43083721 -0.29357159 1.972
0.43319368 -0.29297611 1.9680001
0.3425929 -1.7355545 11.531
0.36105016 -1.7332968 11.516
0.3798871 -1.7329957 11.514
0.39864823 -1.7323937 11.51
0.41717854 -1.7308886 11.5
0.43552437 -1.7287815 11.486
0.45378464 -1.7265236 11.471
0.47286093 -1.7274269 11.477
0.49088585 -1.7245671 11.458
0.50902635 -1.7223094 11.443
0.5274865 -1.7212558 11.436
0.12630007 -0.36077741 2.3970001
0.12947395 -0.3586702 2.3829999
0.13316163 -0.35806817 2.3789999
0.13695143 -0.35776716 2.3770001
0.14085315 -0.35776716 2.3770001
0.14530294 -0.35912174 2.3859999
0.15034518 -0.36183098 2.404
0.15583156 -0.36544326 2.428
0.16113344 -0.3684535 2.448
0.1653541 -0.36890504 2.451
0.16716592 -0.36408862 2.4189999
0.16653806 -0.35430539 2.3540001
0.16757888 -0.3484354 2.3150001
0.17012034 -0.34587669 2.2980001
0.17321134 -0.34452209 2.289
0.17665938 -0.34392005 2.2850001
0.18025216 -0.34361902 2.283
0.1838384 -0.34331799 2.2809999
0.2433659 -0.33759853 2.243
0.24671723 -0.337147 2.24
0.25061765 -0.33744803 2.2420001
0.36821747 -0.3372975 2.2409999
0.36990458 -0.33549139 2.2290001
0.37356338 -0.33549139 2.2290001
0.37756062 -0.33579239 2.2309999
0.38190618 -0.3363944 2.2349999
0.38660991 -0.3372975 2.2409999
0.39290079 -0.3395552 2.256
0.44570103 -0.36785144 2.444
0.44787267 -0.36634636 2.434
0.44407076 -0.36002484 2.392
0.43956903 -0.35325179 2.3469999
0.43964288 -0.35024154 2.3269999
0.44231915 -0.3493385 2.3210001
0.44555229 -0.34888694 2.3180001
0.44916326 -0.34873641 2.3169999
0.45394403 -0.349489 2.322
0.46012115 -0.35129514 2.3340001
0.46673521 -0.35340232 2.348
0.47339523 -0.35550946 2.362
0.47848469 -0.35641253 2.368
0.48298278 -0.35686406 2.3710001
0.42361104 -0.30087358 1.999
0.42475677 -0.29936847 1.989
0.42630008 -0.29816437 1.9809999
0.42868447 -0.29756233 1.977
0.43105572 -0.29696029 1.973
0.43319368 -0.29620773 1.9680001
0.34226608 -1.7528157 11.52
0.36073664 -1.7506853 11.506
0.37935922 -1.7494682 11.498
0.39816332 -1.749164 11.496
0.41652557 -1.7470338 11.482
0.43472809 -1.7444472 11.465
0.45311216 -1.7427734 11.454
0.4721193 -1.7435341 11.459
0.49028605 -1.7412518 11.444
0.50835907 -1.7388176 11.428
0.52684075 -1.7379045 11.422
0.12974563 -0.36334407 2.388
0.13332956 -0.36243114 2.382
0.13706665 -0.36197469 2.3789999
0.1409124 -0.36182255 2.378
0.14512025 -0.36258328 2.3829999
0.14996992 -0.3648656 2.398
0.15531811 -0.368213 2.4200001
0.16054103 -0.37110391 2.4389999
0.1650168 -0.37216902 2.4460001
0.16744235 -0.36866948 2.4230001
0.16731626 -0.35984454 2.365
0.16808559 -0.35330188 2.322
0.17034243 -0.35010669 2.3010001
0.173287 -0.34843296 2.29
0.17665938 -0.34767219 2.2850001
0.18009426 -0.34706357 2.2809999
0.18375781 -0.34691143 2.28
0.18717137 -0.34630281 2.276
0.2433659 -0.34128171 2.243
0.24693753 -0.34112957 2.2420001
0.25106478 -0.34173819 2.2460001
0.36641011 -0.33930373 2.23
0.36940673 -0.33869511 2.2260001
0.37339574 -0.33899939 2.2279999
0.37772986 -0.33960804 2.2320001
0.38224795 -0.34036878 2.237
0.38712749 -0.34143388 2.244
0.44235244 -0.36577854 2.404
0.43812996 -0.35908371 2.3599999
0.4365724 -0.3546713 2.3310001
0.4379425 -0.35269329 2.3180001
0.44117567 -0.35223684 2.3150001
0.44497561 -0.35223684 2.3150001
0.44896945 -0.35238898 2.316
0.4541395 -0.35345402 2.323
0.46071252 -0.35558417 2.3369999
0.46792787 -0.35817084 2.3540001
0.47379607 -0.35969239 2.3640001
0.47888878 -0.36060527 2.3699999
0.48318645 -0.36090958 2.372
0.42339915 -0.30400395 1.998
0.42475677 -0.30263457 1.989
0.42651528 -0.30156949 1.982
0.4284676 -0.30065656 1.976
0.43105572 -0.3002001 1.973
0.4334138 -0.29959148 1.969
0.34223637 -1.7715786 11.519
0.36073664 -1.7695791 11.506
0.37962314 -1.7695791 11.506
0.39847505 -1.7694254 11.505
0.41681576 -1.7671183 11.49
0.43487978 -1.7638887 11.469
0.45311216 -1.7615818 11.454
0.4721193 -1.7623507 11.459
0.49007186 -1.7592748 11.439
0.50800318 -1.7563527 11.42
0.52633345 -1.7549685 11.411
0.13007163 -0.36818814 2.3940001
0.13355346 -0.36695775 2.3859999
0.13718188 -0.36618879 2.381
0.14097166 -0.36588117 2.3789999
0.14499846 -0.36618879 2.381
0.14965722 -0.3680343 2.3929999
0.15493302 -0.37126407 2.414
0.1601461 -0.37418619 2.4330001
0.16461201 -0.37526277 2.4400001
0.16737324 -0.37249443 2.4219999
0.16788223 -0.36495838 2.3729999
0.16866469 -0.35834518 2.3299999
0.17049047 -0.35419267 2.303
0.173287 -0.3521933 2.29
0.17658204 -0.35127056 2.2839999
0.17993635 -0.35050157 2.279
0.18327422 -0.34973258 2.2739999
0.18676017 -0.34927118 2.2709999
0.24032527 -0.34588769 2.2490001
0.24347438 -0.34511867 2.244
0.2471578 -0.34511867 2.244
0.25117657 -0.3455801 2.247
0.36624578 -0.34281176 2.2290001
0.36990458 -0.34281176 2.2290001
0.37356338 -0.34281176 2.2290001
0.37789908 -0.34342694 2.233
0.38293144 -0.3446573 2.2409999
0.38868013 -0.34650287 2.253
0.4386723 -0.36665016 2.3840001
0.43553087 -0.3608059 2.346
0.43563592 -0.35773 2.326
0.43756467 -0.35619202 2.316
0.44098505 -0.3558844 2.3139999
0.44497561 -0.35603824 2.3150001
0.44955102 -0.35665339 2.319
0.454335 -0.35742238 2.3239999
0.46071252 -0.35942173 2.3369999
0.46772909 -0.36188248 2.3529999
0.47299433 -0.36295903 2.3599999
0.47868675 -0.3643432 2.369
0.48298278 -0.36465082 2.3710001
0.42339915 -0.30728483 1.998
0.42454326 -0.30574685 1.988
0.42630008 -0.30467027 1.9809999
0.4284676 -0.30390131 1.976
0.43040025 -0.30297855 1.97
0.43297356 -0.30251715 1.967
0.34202841 -1.7894055 11.512
0.36048582 -1.7872294 11.498
0.37935922 -1.7872294 11.498
0.39816332 -1.7869185 11.496
0.41652557 -1.7847425 11.482
0.43472809 -1.7821 11.465
0.4529539 -1.7797683 11.45
0.47195449 -1.7805457 11.455
0.49002898 -1.7779032 11.438
0.50804764 -1.7752606 11.421
0.52619499 -1.7732401 11.408
0.54468185 -1.7724627 11.403
0.13034327 -0.37289646 2.3989999
0.13372138 -0.37134206 2.3889999
0.13735473 -0.37056491 2.3840001
0.14103092 -0.36994314 2.3800001
0.14493757 -0.36994314 2.3800001
0.14940707 -0.37134206 2.3889999
0.15467629 -0.37460631 2.4100001
0.1598828 -0.3775596 2.4289999
0.16440962 -0.3788031 2.437
0.16730413 -0.3763161 2.421
0.16894343 -0.37118664 2.388
0.16982292 -0.36465821 2.346
0.17108272 -0.35921791 2.3110001
0.17351402 -0.35642001 2.293
0.17673668 -0.35533193 2.286
0.18009426 -0.35455471 2.2809999
0.18351603 -0.35393298 2.277
0.18717137 -0.35377756 2.276
0.2402184 -0.34942526 2.2479999
0.24347438 -0.34880352 2.244
0.24682735 -0.3483372 2.2409999
0.25061765 -0.34849268 2.2420001
0.36657438 -0.3467828 2.2309999
0.37023646 -0.3467828 2.2309999
0.3744013 -0.34724912 2.234
0.37908372 -0.34818178 2.24
0.38412756 -0.34942526 2.2479999
0.43735197 -0.37616065 2.4200001
0.43822408 -0.37351823 2.4030001
0.43499222 -0.36745614 2.3640001
0.43311745 -0.36263752 2.3329999
0.43432495 -0.36046138 2.319
0.43718675 -0.3596842 2.3139999
0.44098505 -0.3596842 2.3139999
0.44497561 -0.35983965 2.3150001
0.45013255 -0.3609277 2.322
0.45550799 -0.3621712 2.3299999
0.46130395 -0.36372557 2.3399999
0.46832541 -0.36621261 2.3559999
0.47299433 -0.36683434 2.3599999
0.47828266 -0.36792246 2.3670001
0.42159143 -0.31165379 2.0050001
0.42339915 -0.31056571 1.998
0.42454326 -0.30901134 1.988
0.42586967 -0.30761236 1.979
0.42803395 -0.30683517 1.974
0.42996335 -0.30590257 1.9680001
0.43209308 -0.30512536 1.9630001
0.34193924 -1.807838 11.509
0.36036041 -1.8054818 11.494
0.37912828 -1.8050104 11.491
0.39785162 -1.8043823 11.487
0.41612652 -1.8018688 11.471
0.43438685 -1.7995127 11.456
0.45275608 -1.7977847 11.445
0.47162488 -1.798099 11.447
0.48985761 -1.796057 11.434
0.50778073 -1.7930723 11.415
0.52601057 -1.7913446 11.404
0.56250995 -1.78836 11.385
0.13066927 -0.37777829 2.405
0.13400124 -0.37605041 2.3940001
0.1376428 -0.375265 2.3889999
0.14126794 -0.37447962 2.3840001
0.14493757 -0.3738513 2.3800001
0.14921944 -0.37479374 2.3859999
0.15416284 -0.37730703 2.402
0.15922458 -0.37997741 2.4189999
0.16366751 -0.38107699 2.4260001
0.16661309 -0.37872076 2.411
0.1688727 -0.37495086 2.3870001
0.17061919 -0.37023845 2.3570001
0.17167495 -0.36426938 2.319
0.17396805 -0.36112779 2.299
0.17704593 -0.35971403 2.29
0.18041007 -0.35892865 2.2850001
0.18375781 -0.35814324 2.28
0.18733585 -0.35782912 2.2780001
0.24390839 -0.35311666 2.2479999
0.24737808 -0.35280252 2.2460001
0.25095296 -0.35264543 2.2449999
0.29925805 -0.35311666 2.2479999
0.30308282 -0.35327375 2.2490001
0.36356297 -0.35107461 2.2349999
0.36657438 -0.35044628 2.2309999
0.37040243 -0.3506034 2.2320001
0.3749041 -0.35138878 2.237
0.37992987 -0.35264543 2.2449999
0.43554476 -0.3785637 2.4100001
0.43457672 -0.3743225 2.3829999
0.43149608 -0.36835346 2.345
0.43107536 -0.36474061 2.322
0.43320119 -0.36332688 2.313
0.43662 -0.36301276 2.3110001
0.44060394 -0.36316982 2.312
0.44516784 -0.36379814 2.316
0.45032641 -0.3648977 2.323
0.45609447 -0.36646849 2.3329999
0.46248674 -0.36851054 2.346
0.46912053 -0.37070966 2.3599999
0.47359559 -0.37118089 2.3629999
0.47888878 -0.37228048 2.3699999
0.41892618 -0.31541735 2.0079999
0.42159143 -0.31494614 2.0050001
0.42318726 -0.31368947 1.997
0.42432967 -0.31211868 1.987
0.42586967 -0.31086203 1.979
0.42760029 -0.30976248 1.972
0.42930788 -0.30866292 1.965
0.4312126 -0.30772042 1.959
0.34190956 -1.826578 11.508
0.36048582 -1.8249906 11.498
0.37912828 -1.8238797 11.491
0.39781699 -1.823086 11.486
0.41609025 -1.8205465 11.47
0.43423513 -1.8176895 11.452
0.45271656 -1.8164196 11.444
0.47121292 -1.8153088 11.437
0.48955774 -1.8137214 11.427
0.50742489 -1.8105469 11.407
0.56162065 -1.804198 11.367
0.57946217 -1.8016586 11.351
0.59762007 -1.80023 11.342
0.1310496 -0.38283852 2.4119999
0.13439307 -0.38109261 2.401
0.1380461 -0.38029897 2.3959999
0.14174199 -0.37966409 2.392
0.14524205 -0.37855306 2.385
0.14928199 -0.37887052 2.3870001
0.1539703 -0.38077515 2.3989999
0.15869802 -0.38267982 2.411
0.16306034 -0.38363218 2.4170001
0.16606024 -0.38141006 2.4030001
0.1685897 -0.37823558 2.3829999
0.17076395 -0.37442625 2.359
0.17211913 -0.3690297 2.325
0.17419507 -0.36537907 2.302
0.17720056 -0.36379188 2.2920001
0.18064694 -0.36315697 2.2880001
0.18391901 -0.36220464 2.2820001
0.18733585 -0.36156976 2.2780001
0.1905718 -0.3606174 2.2720001
0.19421564 -0.36045867 2.2709999
0.19785622 -0.36029994 2.27
0.24781865 -0.35712552 2.25
0.25128835 -0.35680804 2.2479999
0.25463805 -0.35633188 2.2449999
0.29438478 -0.35537958 2.2390001
0.30335233 -0.35728422 2.2509999
0.30718365 -0.35744298 2.2520001
0.31101823 -0.35760167 2.253
0.36323768 -0.35442725 2.233
0.36641011 -0.35395107 2.23
0.37056836 -0.35442725 2.233
0.37523928 -0.35537958 2.2390001
0.38077605 -0.35712552 2.25
0.43319535 -0.38045773 2.3970001
0.43111181 -0.37521988 2.3640001
0.42892 -0.36998203 2.3310001
0.43014708 -0.36775988 2.3169999
0.4326393 -0.36664885 2.3099999
0.43643105 -0.36664885 2.3099999
0.44098505 -0.36728373 2.3139999
0.44555229 -0.36791864 2.3180001
0.45090801 -0.36918843 2.326
0.45648551 -0.37061691 2.335
0.46248674 -0.37236285 2.346
0.468723 -0.37426755 2.358
0.47279397 -0.37442625 2.359
0.41790703 -0.32046062 2.0190001
0.41934344 -0.31903213 2.01
0.42180172 -0.31839722 2.006
0.42361104 -0.31728616 1.999
0.42454326 -0.31554022 1.988
0.42630008 -0.31442916 1.9809999
0.42760029 -0.31300068 1.972
0.42908943 -0.31173089 1.964
0.43077239 -0.31061983 1.957
0.34173128 -1.8445128 11.502
0.36029771 -1.842909 11.492
0.37886432 -1.8414658 11.483
0.39740136 -1.8400226 11.474
0.41565493 -1.8374568 11.458
0.43389389 -1.8350512 11.443
0.45236054 -1.8337685 11.435
0.47075969 -1.8323251 11.426
0.4891293 -1.8308818 11.417
0.50684661 -1.8271934 11.394
0.52467293 -1.8241465 11.375
0.54281902 -1.8223826 11.364
0.56083012 -1.8202977 11.351
0.57884961 -1.8183734 11.339
0.59698778 -1.8169302 11.33
0.61520505 -1.8158075 11.323
0.13478488 -0.38615778 2.408
0.13827658 -0.38487488 2.4000001
0.14203829 -0.38439378 2.3970001
0.14560744 -0.38343161 2.391
0.14946963 -0.38327125 2.3900001
0.1539703 -0.38471451 2.3989999
0.15836889 -0.38583705 2.4059999
0.16245316 -0.38615778 2.408
0.16550739 -0.38407305 2.395
0.16816524 -0.38118649 2.3770001
0.17069158 -0.37813959 2.358
0.17234123 -0.37332866 2.3280001
0.17457341 -0.36996093 2.3069999
0.17758711 -0.3683573 2.2969999
0.18096276 -0.3675555 2.2920001
0.18725361 -0.36515 2.277
0.19048791 -0.36418784 2.2709999
0.19413012 -0.36402747 2.27
0.19794336 -0.36418784 2.2709999
0.2015823 -0.36402747 2.27
0.20557973 -0.36450857 2.273
0.20866615 -0.36338603 2.266
0.24792878 -0.36098054 2.2509999
0.25128835 -0.36049944 2.2479999
0.25452462 -0.35985798 2.244
0.25740257 -0.35873544 2.237
0.28889179 -0.35681105 2.2249999
0.3594113 -0.35793364 2.2320001
0.36291233 -0.35777327 2.2309999
0.36624578 -0.35745254 2.2290001
0.37090027 -0.35841471 2.2349999
0.37624481 -0.36001834 2.2449999
0.38229915 -0.36226347 2.2590001
0.38959557 -0.36563113 2.28
0.43012303 -0.38166761 2.3800001
0.4289234 -0.37717736 2.352
0.42726392 -0.37236643 2.322
0.42903325 -0.37060243 2.3110001
0.43207741 -0.36996093 2.3069999
0.43586424 -0.36996093 2.3069999
0.44041339 -0.37060243 2.3110001
0.44536003 -0.3715646 2.3169999
0.45071414 -0.37284753 2.325
0.45648551 -0.37445119 2.335
0.46209252 -0.37589446 2.3440001
0.46772909 -0.37733772 2.3529999
0.47159141 -0.37733772 2.3529999
0.41625112 -0.32249305 2.0109999
0.41767445 -0.32104981 2.0020001
0.42054006 -0.32072905 2
0.42276341 -0.31992725 1.995
0.42368904 -0.31816322 1.984
0.42543927 -0.31704068 1.977
0.42651609 -0.31543702 1.967
0.42843395 -0.31447485 1.961
0.430112 -0.31335229 1.954
0.34137475 -1.8614559 11.49
0.35985878 -1.8595119 11.478
0.37833643 -1.8577298 11.467
0.3967433 -1.8557856 11.455
0.41521963 -1.8543276 11.446
0.43347681 -1.8520595 11.432
0.45176715 -1.8501155 11.42
0.47001806 -1.8481714 11.408
0.48840097 -1.8468753 11.4
0.50631285 -1.8439592 11.382
0.56003958 -1.836345 11.335
0.578237 -1.8350488 11.327
0.59625012 -1.8332669 11.316
0.6140641 -1.8309988 11.302
0.13478488 -0.39011192 2.408
0.13839179 -0.38913986 2.402
0.14209753 -0.38849184 2.398
0.14572923 -0.38768181 2.3929999
0.14946963 -0.38719583 2.3900001
0.15384194 -0.38832986 2.3970001
0.15797397 -0.38881588 2.4000001
0.16171105 -0.38832986 2.3970001
0.16481635 -0.38638574 2.385
0.16774075 -0.38411766 2.3710001
0.17054678 -0.38168758 2.3559999
0.17256331 -0.37763742 2.3310001
0.17510311 -0.37488326 2.3139999
0.17828293 -0.37358725 2.306
0.193617 -0.36678296 2.2639999
0.19715893 -0.36645895 2.2620001
0.20060548 -0.36597294 2.2590001
0.20431352 -0.36597294 2.2590001
0.20774528 -0.36548692 2.256
0.24836937 -0.36532491 2.2550001
0.25117657 -0.36402884 2.247
0.25429779 -0.36321884 2.2420001
0.25740257 -0.36240879 2.237
0.26049095 -0.36159876 2.2320001
0.28498319 -0.36014068 2.223
0.35590696 -0.36176077 2.233
0.35973331 -0.36192277 2.234
0.36323768 -0.36176077 2.233
0.36690301 -0.36176077 2.233
0.37189597 -0.36305681 2.2409999
0.37808836 -0.36548692 2.256
0.38466844 -0.36824101 2.273
0.4281863 -0.3873578 2.391
0.4272314 -0.38298362 2.3640001
0.42673504 -0.37909544 2.3399999
0.42615986 -0.3752073 2.316
0.42903325 -0.37439728 2.3110001
0.4326393 -0.37423524 2.3099999
0.43662 -0.37439728 2.3110001
0.44117567 -0.3750453 2.3150001
0.4461289 -0.37601733 2.3210001
0.4518773 -0.37763742 2.3310001
0.45687643 -0.37860942 2.3369999
0.46248674 -0.3800675 2.346
0.46812662 -0.38152555 2.355
0.47239313 -0.38184959 2.3570001
0.41563016 -0.32530925 2.0079999
0.41746581 -0.32417521 2.0009999
0.41990927 -0.32352722 1.997
0.42233962 -0.32287917 1.993
0.42347547 -0.32125911 1.983
0.42500892 -0.31996307 1.975
0.42586556 -0.31818098 1.964
0.42756006 -0.31704694 1.957
0.42967179 -0.31623688 1.952
0.34101823 -1.8783597 11.478
0.35951391 -1.8765594 11.467
0.37761056 -1.8729591 11.445
0.39618915 -1.8719773 11.439
0.4144578 -1.8696862 11.425
0.432908 -1.8683771 11.417
0.45117375 -1.8664132 11.405
0.46927646 -1.8639586 11.39
0.55934787 -1.8526669 11.321
0.57736921 -1.8508667 11.31
0.59561777 -1.8498849 11.304
0.61352074 -1.847921 11.292
0.13484085 -0.39422968 2.4089999
0.13850702 -0.39341143 2.404
0.14203829 -0.39226592 2.3970001
0.14572923 -0.39161128 2.3929999
0.14934453 -0.39079309 2.388
0.15352103 -0.39144763 2.392
0.15738156 -0.39128402 2.391
0.16090149 -0.39030212 2.385
0.1644017 -0.38932022 2.3789999
0.16752851 -0.3875201 2.368
0.17076395 -0.38604724 2.359
0.17322956 -0.38293794 2.3399999
0.17601117 -0.38064685 2.326
0.19733325 -0.37050062 2.2639999
0.20051666 -0.36951873 2.2579999
0.20422305 -0.36951873 2.2579999
0.20792945 -0.36951873 2.2579999
0.21238567 -0.37082794 2.266
0.24814908 -0.3687005 2.253
0.25072944 -0.367064 2.243
0.25384405 -0.36624575 2.2379999
0.25717244 -0.36575478 2.2349999
0.26049095 -0.36526391 2.2320001
0.26379964 -0.36477295 2.2290001
0.27768531 -0.36379105 2.223
0.28184047 -0.36444563 2.227
0.28511137 -0.36395469 2.224
0.28902164 -0.36428198 2.2260001
0.35590696 -0.36542752 2.233
0.35973331 -0.36559117 2.234
0.36340031 -0.36559117 2.234
0.36723161 -0.36575478 2.2349999
0.37289169 -0.36771861 2.247
0.37959668 -0.3706643 2.2650001
0.42497131 -0.3919386 2.395
0.42514187 -0.388502 2.3740001
0.42452058 -0.38441077 2.349
0.42472902 -0.38113779 2.329
0.42523986 -0.37819213 2.3110001
0.42884755 -0.37802845 2.3099999
0.43301392 -0.37835577 2.312
0.43737569 -0.37884673 2.3150001
0.44193798 -0.37950131 2.319
0.44709 -0.38064685 2.326
0.45284656 -0.38228333 2.336
0.45824498 -0.38359255 2.3440001
0.46327531 -0.38457438 2.3499999
0.41725719 -0.32729739 2
0.41969901 -0.32664278 1.9960001
0.42212766 -0.3259882 1.992
0.42347547 -0.32451537 1.983
0.42457852 -0.32287887 1.973
0.42564878 -0.32124239 1.9630001
0.42734155 -0.32009682 1.956
0.42923152 -0.31911495 1.95
0.34069142 -1.8953892 11.467
0.37711567 -1.8892735 11.43
0.39563498 -1.8881165 11.423
0.41405874 -1.8866287 11.414
0.4322255 -1.8841494 11.399
0.45061991 -1.882827 11.391
0.46865848 -1.8801825 11.375
0.55880439 -1.8694386 11.31
0.57665443 -1.8671244 11.296
0.5948801 -1.8661329 11.29
0.61286879 -1.8644798 11.28
0.63093656 -1.8631576 11.272
0.64892042 -1.8616699 11.263
0.14191976 -0.39587137 2.395
0.14560744 -0.39521024 2.391
0.14921944 -0.39438376 2.3859999
0.15307176 -0.39421847 2.385
0.15665753 -0.39339206 2.3800001
0.16009191 -0.39223498 2.3729999
0.16371065 -0.39157382 2.369
0.16689178 -0.38992092 2.359
0.17054678 -0.38942504 2.3559999
0.17352571 -0.38744158 2.3440001
0.1766922 -0.38595396 2.335
0.1935315 -0.374053 2.263
0.19724607 -0.374053 2.263
0.20033906 -0.37289599 2.256
0.20404218 -0.37289599 2.256
0.20792945 -0.37322655 2.2579999
0.24836937 -0.3727307 2.2550001
0.25061765 -0.37058192 2.2420001
0.25361726 -0.36959016 2.2360001
0.25705737 -0.36925957 2.234
0.26037425 -0.36876369 2.2309999
0.26391798 -0.36859843 2.23
0.26721844 -0.36810252 2.227
0.27063069 -0.36777195 2.2249999
0.2742829 -0.36777195 2.2249999
0.27793512 -0.36777195 2.2249999
0.28209358 -0.36843312 2.2290001
0.28549597 -0.36810252 2.227
0.28902164 -0.36793727 2.2260001
0.32936293 -0.37223482 2.2520001
0.3321721 -0.37124306 2.2460001
0.35271484 -0.36959016 2.2360001
0.35606632 -0.36925957 2.234
0.35957232 -0.36909428 2.233
0.36356297 -0.36942485 2.2349999
0.36772454 -0.36992073 2.2379999
0.37355545 -0.37206951 2.2509999
0.38127261 -0.37603652 2.2750001
0.41797957 -0.39669785 2.4000001
0.42156023 -0.38909447 2.3540001
0.42217115 -0.38611922 2.336
0.42327011 -0.3836399 2.3210001
0.42505583 -0.38182166 2.3099999
0.42884755 -0.38182166 2.3099999
0.43320119 -0.38231754 2.313
0.43775356 -0.38297868 2.3169999
0.44231915 -0.3836399 2.3210001
0.44728217 -0.3846316 2.3269999
0.45284656 -0.38611922 2.336
0.45824498 -0.38744158 2.3440001
0.41642269 -0.32992038 1.9960001
0.41864768 -0.32909393 1.9910001
0.4210681 -0.32843274 1.987
0.42304835 -0.32744101 1.9809999
0.42436334 -0.32595339 1.972
0.42543191 -0.3243005 1.962
0.42734155 -0.32330874 1.956
0.42945164 -0.32248229 1.951
0.39539254 -1.9057056 11.416
0.41380483 -1.9042029 11.407
0.43196011 -1.9016989 11.392
0.45010567 -1.8993618 11.378
0.46820524 -1.8970249 11.364
0.4863874 -1.8951886 11.353
0.50431108 -1.8925176 11.337
0.52204376 -1.8893459 11.318
0.53990525 -1.886842 11.303
0.55835968 -1.8865081 11.301
0.57614404 -1.8840041 11.286
0.59435326 -1.8830024 11.28
0.61232549 -1.8813334 11.27
0.63037682 -1.8799977 11.262
0.14197902 -0.3999711 2.3959999
0.14560744 -0.39913645 2.391
0.14915691 -0.39813483 2.385
0.15287922 -0.39763403 2.382
0.1563284 -0.39646551 2.375
0.15961966 -0.39496309 2.3659999
0.16329601 -0.39446229 2.3629999
0.16653806 -0.39295992 2.3540001
