ply
format ascii 1.0
comment PCL generated
element vertex 1475
property float x
property float y
property float z
element face 0
element camera 0
property float view_px
property float view_py
property float view_pz
property float x_axisx
property float x_axisy
property float x_axisz
property float y_axisx
property float y_axisy
property float y_axisz
property float z_axisx
property float z_axisy
property float z_axisz
property float focal
property float scalex
property float scaley
property float centerx
property float centery
property int viewportx
property int viewporty
property float k1
property float k2
end_header
-2.8208897 -1.8017845 5.493
-2.7705629 -1.6807681 5.3950005
-2.7464261 -1.5780288 5.348
-2.6760709 -1.4517646 5.2110004
-2.8989484 -1.4796863 5.6450005
-2.8989484 -1.3866971 5.6450005
-2.7228031 -1.2150998 5.302
-2.5661728 -1.0628859 4.9970002
-2.5661728 -0.98057121 4.9970002
-2.5050611 -0.87686509 4.8780003
-2.653475 -0.84370041 5.1670003
-2.7705629 -0.79205871 5.3950005
-2.5456309 -0.64609855 4.9570003
-2.3900278 -0.52994078 4.6540003
-2.1157959 -0.40126732 4.1200004
-1.9093516 -0.30086851 3.7180002
-1.8862423 -0.23672229 3.6730001
-1.7994535 -0.16810957 3.5040002
-1.7491263 -0.10730141 3.4060001
-1.7691545 -0.051781129 3.4450002
-1.7891827 0.0050240206 3.4840002
-1.7994535 0.062773667 3.5040002
-1.7994535 0.12049448 3.5040002
-1.720368 0.17038277 3.3500001
-1.6833929 0.22071874 3.2780001
-1.6926367 0.27622524 3.2960002
-1.7491263 0.34155038 3.4060001
-1.7296119 0.39322031 3.3680003
-1.7018805 0.44150665 3.3140001
-1.7994535 0.52454013 3.5040002
-1.9329746 0.62546527 3.7640002
-1.9206498 0.68308556 3.7400002
-1.852862 0.71841067 3.6080003
-1.6741492 0.70281971 3.2600002
-1.6566886 0.74863106 3.2260001
-1.665419 0.80599749 3.2430003
-1.5498718 0.79979223 3.0180001
-1.4630831 0.8019371 2.8490002
-1.4101882 0.81817901 2.7460001
-1.3670506 0.83700168 2.6620002
-1.3321297 0.85835123 2.5940001
-1.2725588 0.86078668 2.4780002
-1.2135015 0.85976428 2.3630002
-1.1903919 0.88157529 2.3180001
-2.6126175 -2.0703697 5.256
-2.8059793 -2.1306102 5.6450005
-2.7552776 -2.000803 5.5430002
-2.8059793 -1.9446318 5.6450005
-2.681711 -1.7696391 5.3950005
-2.568378 -1.6097367 5.1670003
-2.568378 -1.5246214 5.1670003
-2.6126175 -1.4643013 5.256
-2.6583483 -1.4018354 5.348
-2.7552776 -1.3616406 5.5430002
-2.6126175 -1.2045577 5.256
-2.4838758 -1.0628859 4.9970002
-2.4639926 -0.97272187 4.9570003
-2.3133795 -0.83659905 4.6540003
-2.5902493 -0.85088497 5.2110004
-2.9421773 -0.86898899 5.9190001
-2.5047526 -0.6567865 5.039
-2.1493452 -0.49236444 4.3240004
-1.8590544 -0.36425722 3.7400002
-1.8038793 -0.29366645 3.6290002
-1.8824168 -0.24406955 3.7870002
-1.8148149 -0.17516211 3.6510003
-1.6835874 -0.10670283 3.3870001
-1.6835874 -0.05090934 3.3870001
-1.6930318 0.0049115424 3.4060001
-1.6930318 0.061018016 3.4060001
-1.7218621 0.11911897 3.4640002
-1.6473011 0.16855179 3.3140001
-1.5951084 0.21607277 3.2090001
-1.6651958 0.28075075 3.3500001
-1.8148149 0.36611873 3.6510003
-1.8481188 0.43408343 3.7180002
-1.8824168 0.50452191 3.7870002
-1.9301358 0.58127552 3.8830001
-1.8824168 0.62928718 3.7870002
-1.8366861 0.67486662 3.6950002
-1.8148149 0.72697264 3.6510003
-1.6741431 0.72610331 3.3680003
-1.6473011 0.76905245 3.3140001
-1.6294065 0.81469619 3.2780001
-1.5150796 0.80774248 3.0480001
-1.4365419 0.81347781 2.8900001
-1.3773904 0.82562786 2.7710001
-1.3232094 0.83700168 2.6620002
-1.2839406 0.85471141 2.5830002
-1.2267771 0.85731292 2.4680002
-1.1701106 0.8564896 2.3540001
-1.1522161 0.88157529 2.3180001
-2.4621344 -2.0179803 5.1230001
-2.6164083 -2.0547459 5.4440002
-2.6399579 -1.9827549 5.493
-2.6639881 -1.9094942 5.5430002
-2.5481625 -1.7391336 5.302
-2.4832811 -1.6097367 5.1670003
-2.4621344 -1.5116384 5.1230001
-2.4217637 -1.4038459 5.039
-2.3823543 -1.2993453 4.9570003
-2.5481625 -1.3024387 5.302
-2.5928588 -1.2364134 5.3950005
-2.5044277 -1.1084048 5.2110004
-2.4621344 -1.0052963 5.1230001
-2.2891169 -0.85619277 4.763
-2.4419494 -0.82965773 5.0810003
-2.7908676 -0.8525458 5.8070002
-2.3256431 -0.63071835 4.8390002
-1.9800887 -0.4691354 4.1200004
-1.7868857 -0.36211452 3.7180002
-1.7758319 -0.2990073 3.6950002
-1.8200476 -0.24406955 3.7870002
-1.7758319 -0.17727308 3.6950002
-1.6840366 -0.11038876 3.5040002
-1.6369374 -0.051194929 3.4060001
-1.6100236 0.0048307888 3.3500001
-1.6013727 0.059692316 3.3320003
-1.6556809 0.11846561 3.4450002
-1.6369374 0.17323096 3.4060001
-1.6013727 0.22435477 3.3320003
-1.558599 0.2717835 3.2430003
-1.7234461 0.3596006 3.5860002
-1.831582 0.44494134 3.8110001
-1.8431165 0.51091671 3.8350003
-1.8661854 0.58127552 3.8830001
-1.8431165 0.63726336 3.8350003
-1.8089937 0.68746901 3.7640002
-1.7868857 0.74031341 3.7180002
-1.6936486 0.75973517 3.5240002
-1.6186745 0.78158385 3.3680003
-1.558599 0.80599749 3.2430003
-1.4797798 0.81595773 3.0790002
-1.4019219 0.8210777 2.9170001
-1.3567452 0.84112144 2.8230002
-1.2740812 0.83354294 2.651
-1.2365942 0.85140234 2.5730002
-1.1861309 0.85731292 2.4680002
-1.1356674 0.85976428 2.3630002
-1.1097146 0.87815243 2.309
-2.439492 -2.0703697 5.256
-2.669703 -2.1709955 5.7520003
-2.4821923 -1.9304157 5.348
-2.5040069 -1.85851 5.3950005
-2.4608421 -1.7391336 5.302
-2.439492 -1.6374638 5.256
-2.2821505 -1.4508542 4.9170003
-2.3007159 -1.3810011 4.9570003
-2.3582685 -1.3318485 5.0810003
-2.4608421 -1.3024387 5.302
-2.5040069 -1.2364134 5.3950005
-2.4821923 -1.1375453 5.348
-2.4608421 -1.0404218 5.302
-2.3777621 -0.92090607 5.1230001
-2.418606 -0.85088497 5.2110004
-2.5494919 -0.80644643 5.493
-2.1600831 -0.60660541 4.6540003
-1.874176 -0.45979822 4.0380001
-1.7799567 -0.37350976 3.8350003
-1.7576783 -0.30645216 3.7870002
-1.7470032 -0.24258719 3.7640002
-1.6945559 -0.17516211 3.6510003
-1.6643872 -0.11297206 3.5860002
-1.6356108 -0.052968562 3.5240002
-1.5720243 0.0048841434 3.3870001
-1.546497 0.059692316 3.3320003
-1.5896615 0.11777785 3.4250002
-1.6170454 0.17719808 3.4840002
-1.6643872 0.24145743 3.5860002
-1.4972986 0.2703588 3.2260001
-1.6170454 0.34937215 3.4840002
-1.7688174 0.44494134 3.8110001
-1.7688174 0.50771934 3.8110001
-1.8138386 0.58501798 3.9080002
-1.825442 0.65354806 3.9330001
-1.8138386 0.71376967 3.9080002
-1.7358639 0.74469393 3.7400002
-1.6546402 0.7685743 3.5650001
-1.5808429 0.79040217 3.4060001
-1.4972986 0.80177236 3.2260001
-1.4221088 0.81198257 3.0640001
-1.353881 0.8210777 2.9170001
-1.3102523 0.84112144 2.8230002
-1.2410961 0.84077477 2.674
-1.2039654 0.85835123 2.5940001
-1.1501259 0.86078668 2.4780002
-1.0967504 0.85976428 2.3630002
-1.0716871 0.87815243 2.309
-2.4151549 -2.125123 5.3950005
-2.5270712 -2.1306102 5.6450005
-2.2933898 -1.8491995 5.1230001
-2.3529294 -1.8106261 5.256
-2.3941145 -1.7542222 5.348
-2.183712 -1.519701 4.8780003
-2.1156669 -1.394496 4.7260003
-2.1662529 -1.3481268 4.8390002
-2.4151549 -1.4141554 5.3950005
-2.4814093 -1.3616406 5.5430002
-2.3529294 -1.2045577 5.256
-2.3130872 -1.0990459 5.1670003
-2.373522 -1.0404218 5.302
-2.3529294 -0.94481403 5.256
-2.3941145 -0.87325519 5.348
-2.3529294 -0.77165157 5.256
-2.1156669 -0.61598992 4.7260003
-1.8824332 -0.47881415 4.2050004
-1.8197598 -0.39591059 4.0650001
-1.6953089 -0.30645216 3.7870002
-1.6742687 -0.24104041 3.7400002
-1.644275 -0.17621759 3.6730001
-1.6245778 -0.11432672 3.6290002
-1.5869739 -0.053284209 3.5450001
-1.5247484 0.0049115424 3.4060001
-1.5162427 0.060677629 3.3870001
-1.5596663 0.11980673 3.4840002
-1.6053281 0.18238585 3.5860002
-1.6742687 0.25182676 3.7400002
-1.5959271 0.29876909 3.5650001
-1.66442 0.37283742 3.7180002
-1.7167969 0.44774339 3.8350003
-1.7060528 0.50771934 3.8110001
-1.7494764 0.58501798 3.9080002
-1.7723073 0.65786844 3.9590001
-1.7494764 0.71376967 3.9080002
-1.6850127 0.74947274 3.7640002
-1.6053281 0.77310169 3.5860002
-1.5507131 0.80386174 3.4640002
-1.4835632 0.82364345 3.3140001
-1.3855244 0.82019776 3.095
-1.30584 0.8210777 2.9170001
-1.2463006 0.82950127 2.7840002
-1.2024293 0.84454787 2.6860001
-1.1715404 0.86596185 2.6170001
-1.1142392 0.86460775 2.4890001
-1.066339 0.86667734 2.3820002
-1.0336593 0.87815243 2.309
-2.1909075 -2.0014362 5.0810003
-2.2663665 -1.9837886 5.256
-2.2663665 -1.8972073 5.256
-2.3474314 -1.8753898 5.4440002
-2.172797 -1.6528658 5.039
-2.0701723 -1.4957123 4.8010001
-2.0701723 -1.4166261 4.8010001
-2.172797 -1.4038459 5.039
-2.3685601 -1.4398433 5.493
-2.3474314 -1.3373212 5.4440002
-2.2663665 -1.2045577 5.256
-2.1909075 -1.0807532 5.0810003
-2.2663665 -1.0313952 5.256
-2.2663665 -0.94481403 5.256
-2.326303 -0.88092971 5.3950005
-2.326303 -0.79205871 5.3950005
-2.1201913 -0.64088494 4.9170003
-1.9050244 -0.50306797 4.4180002
-1.752812 -0.39591059 4.0650001
-1.6536371 -0.31033644 3.8350003
-1.6126734 -0.24104041 3.7400002
-1.5932696 -0.17727308 3.6950002
-1.5932696 -0.11640596 3.6950002
-1.5195349 -0.052968562 3.5240002
-1.4686539 0.0049115424 3.4060001
-1.5022871 0.062415376 3.4840002
-1.6031871 0.12785345 3.7180002
-1.6432883 0.19382946 3.8110001
-1.6126734 0.25182676 3.7400002
-1.5837833 0.30782017 3.6730001
-1.6639857 0.38697678 3.8590002
-1.6958942 0.45918503 3.9330001
-1.6536371 0.51091671 3.8350003
-1.6851144 0.58501798 3.9080002
-1.6230221 0.62546527 3.7640002
-1.5837833 0.67084843 3.6730001
-1.574297 0.72697264 3.6510003
-1.5462692 0.77310169 3.5860002
-1.5022871 0.80850297 3.4840002
-1.4522685 0.83706433 3.3680003
-1.3483502 0.82867801 3.1270001
-1.2638358 0.82501847 2.9310002
-1.2004499 0.82950127 2.7840002
-1.1581928 0.84454787 2.6860001
-1.123697 0.86232203 2.6060002
-1.077559 0.86808151 2.4990001
-1.0309899 0.8699519 2.391
-0.9883014 0.87168705 2.2920001
-2.1072266 -2.0014362 5.0810003
-2.124645 -1.9335901 5.1230001
-2.1798038 -1.8972073 5.256
-2.2374511 -1.85851 5.3950005
-2.1428933 -1.6948516 5.1670003
-2.124645 -1.5960287 5.1230001
-2.124645 -1.5116384 5.1230001
-2.1611414 -1.4517646 5.2110004
-2.1798038 -1.3777201 5.256
-2.2780941 -1.3493581 5.493
-2.2780941 -1.2588727 5.493
-2.1428933 -1.0990459 5.1670003
-2.1611414 -1.0225649 5.2110004
-2.1611414 -0.93672496 5.2110004
-2.2780941 -0.89693171 5.493
-2.319567 -0.82112777 5.5930004
-2.1072266 -0.66226083 5.0810003
-1.9011075 -0.52197003 4.5840001
-1.7559532 -0.41237035 4.2340002
-1.6419032 -0.32037076 3.9590001
-1.610384 -0.25025666 3.8830001
-1.6207522 -0.18749206 3.9080002
-1.5705702 -0.11930428 3.7870002
-1.4449081 -0.052367333 3.4840002
-1.3967998 0.0048567452 3.3680003
-1.5419542 0.066607453 3.7180002
-1.7318989 0.14360301 4.1760001
-1.7086744 0.20954537 4.1200004
-1.5419542 0.25034544 3.7180002
-1.4872103 0.300529 3.5860002
-1.5324154 0.37053102 3.6950002
-1.6004306 0.45054546 3.8590002
-1.5904772 0.51091671 3.8350003
-1.6419032 0.5926525 3.9590001
-1.5510781 0.62147719 3.7400002
-1.4963342 0.65897667 3.6080003
-1.4963342 0.71841067 3.6080003
-1.4963342 0.77784461 3.6080003
-1.4449081 0.80850297 3.4840002
-1.3893347 0.83259064 3.3500001
-1.3034862 0.83291811 3.1430001
-1.2275912 0.83318132 2.96
-1.1599908 0.83337462 2.7970002
-1.1139561 0.84454787 2.6860001
-1.080778 0.86232203 2.6060002
-1.0322549 0.86460775 2.4890001
-0.99161166 0.8699519 2.391
-0.94682121 0.86826408 2.283
-2.093241 -2.0703697 5.256
-2.1298809 -2.0185125 5.348
-2.1298809 -1.9304157 5.348
-2.1485989 -1.85851 5.3950005
-2.0577962 -1.6948516 5.1670003
-2.1115608 -1.6517947 5.302
-2.0235462 -1.4992455 5.0810003
-2.0577962 -1.4395063 5.1670003
-2.1485989 -1.4141554 5.3950005
-2.1876283 -1.3493581 5.493
-2.1876283 -1.2588727 5.493
-2.093241 -1.1179764 5.256
-2.1115608 -1.0404218 5.302
-2.1298809 -0.96135187 5.348
-2.2274539 -0.91326034 5.5930004
-2.2481635 -0.82876211 5.6450005
-2.0753195 -0.67920512 5.2110004
-1.9426998 -0.55544716 4.8780003
-1.8821647 -0.46028864 4.7260003
-1.8678273 -0.37952483 4.6900001
-1.9271679 -0.31187019 4.8390002
-1.9582318 -0.23590034 4.9170003
-1.686222 -0.13338642 4.2340002
-1.3719969 -0.051781129 3.4450002
-1.2983193 0.0047010067 3.2600002
-1.4281512 0.064242691 3.5860002
-1.5368755 0.13270211 3.8590002
-1.508201 0.19260882 3.7870002
-1.454038 0.24583411 3.6510003
-1.3795638 0.29030469 3.4640002
-1.4034593 0.3533833 3.5240002
-1.4281512 0.41867217 3.5860002
-1.4452763 0.48347241 3.6290002
-1.4807212 0.55657542 3.7180002
-1.4452763 0.60303229 3.6290002
-1.4034593 0.64363462 3.5240002
-1.4197878 0.70984864 3.5650001
-1.4281512 0.77310169 3.5860002
-1.3795638 0.80386174 3.4640002
-1.3198252 0.82364345 3.3140001
-1.245351 0.82867801 3.1270001
-1.1903915 0.8413443 2.9890001
-1.1294582 0.84499478 2.8360002
-1.0744987 0.84832102 2.6980002
-1.037859 0.86232203 2.6060002
-0.98289943 0.85731292 2.4680002
-0.94108236 0.85976428 2.3630002
-0.91639036 0.87510991 2.3010001
-2.0784547 -2.1444242 5.4440002
-2.0784547 -2.0547459 5.4440002
-1.989498 -1.8809643 5.2110004
-2.0784547 -1.8753898 5.4440002
-2.0597472 -1.7696391 5.3950005
-2.1162517 -1.7268764 5.5430002
-1.9726994 -1.5246214 5.1670003
-2.0066783 -1.4643013 5.256
-2.0971622 -1.4398433 5.493
-1.989498 -1.2800847 5.2110004
-1.989498 -1.1942449 5.2110004
-1.9726994 -1.0990459 5.1670003
-2.0418029 -1.0494486 5.348
-2.0597472 -0.96980065 5.3950005
-2.1551943 -0.9217512 5.6450005
-2.1754289 -0.8365432 5.6980004
-2.0597472 -0.70318776 5.3950005
-1.989498 -0.59336519 5.2110004
-1.989498 -0.50752521 5.2110004
-2.0242405 -0.42904919 5.302
-2.1162517 -0.35724252 5.5430002
-2.1162517 -0.2659336 5.5430002
-1.8772523 -0.15490341 4.9170003
-1.3225142 -0.052066717 3.4640002
-1.2251581 0.0046274629 3.2090001
-1.2789903 0.060014781 3.3500001
-1.3003703 0.11712448 3.4060001
-1.2789903 0.17038277 3.3500001
-1.3301499 0.23458944 3.4840002
-1.2931163 0.28385156 3.3870001
-1.2931163 0.33964506 3.3870001
-1.3152601 0.40221018 3.4450002
-1.3225142 0.46149039 3.4640002
-1.2858624 0.50418133 3.3680003
-1.2858624 0.55966181 3.3680003
-1.3003703 0.62208271 3.4060001
-1.3003703 0.67818922 3.4060001
-1.3301499 0.75111163 3.4840002
-1.2931163 0.78599298 3.3870001
-1.2515014 0.81469619 3.2780001
-1.1877428 0.82443792 3.1110001
-1.135438 0.83712214 2.9740002
-1.077788 0.84112144 2.8230002
-1.0300645 0.84832102 2.6980002
-0.99913955 0.86596185 2.6170001
-0.94225317 0.85731292 2.4680002
-0.90216535 0.85976428 2.3630002
-0.88498485 0.88157529 2.3180001
-2.0432281 -2.2031162 5.5930004
-1.9369202 -2.0011504 5.302
-1.8408415 -1.8188789 5.039
-2.006696 -1.8922696 5.493
-2.0622249 -1.8516427 5.6450005
-2.162322 -1.8440161 5.9190001
-2.006696 -1.6208138 5.493
-1.9887955 -1.5166774 5.4440002
-1.9369202 -1.3897778 5.302
-1.856185 -1.2481501 5.0810003
-1.8408415 -1.1548262 5.039
-1.8408415 -1.0718195 5.039
-1.9201156 -1.0313952 5.256
-1.9369202 -0.95308298 5.302
-1.9887955 -0.88893062 5.4440002
-2.006696 -0.80644643 5.493
-1.9369202 -0.69106609 5.302
-1.9201156 -0.59848917 5.256
-1.9369202 -0.51638812 5.302
-1.9369202 -0.42904919 5.302
-1.9887955 -0.35086206 5.4440002
-1.9369202 -0.25437129 5.302
-1.7677778 -0.15244612 4.8390002
-1.3180703 -0.054231152 3.6080003
-1.2040908 0.0047529195 3.2960002
-1.1975151 0.05872491 3.2780001
-1.2040908 0.11334185 3.2960002
-1.2040908 0.16763631 3.2960002
-1.1975151 0.22071874 3.2780001
-1.184729 0.2717835 3.2430003
-1.1975151 0.32871467 3.2780001
-1.2040908 0.38481417 3.2960002
-1.2238181 0.44630271 3.3500001
-1.2040908 0.49340308 3.2960002
-1.1975151 0.54470646 3.2780001
-1.2303939 0.61514235 3.3680003
-1.2172424 0.66345465 3.3320003
-1.2238181 0.72222269 3.3500001
-1.2040908 0.76487541 3.2960002
-1.184729 0.80599749 3.2430003
-1.1365068 0.82443792 3.1110001
-1.0970525 0.84528506 3.0030003
-1.0312951 0.84112144 2.8230002
-0.97686243 0.84077477 2.674
-0.95202082 0.86232203 2.6060002
-0.90927851 0.86460775 2.4890001
-0.87018943 0.86667734 2.3820002
-0.85338479 0.888421 2.3360002
-2.1269355 -2.4016447 6.0970001
-1.9692556 -2.1306102 5.6450005
-1.9692556 -2.037621 5.6450005
-2.3631065 -2.3335581 6.7740002
-2.2870572 -2.1504641 6.5560002
-2.5626483 -2.2885861 7.3460002
-2.2155433 -1.873983 6.3510003
-2.2389162 -1.7880301 6.4180002
-1.9511154 -1.4660558 5.5930004
-1.8820431 -1.3252844 5.3950005
-1.8178548 -1.1942449 5.2110004
-1.8025053 -1.0990459 5.1670003
-1.8820431 -1.0586716 5.3950005
-1.833553 -0.94481403 5.256
-1.8820431 -0.88092971 5.3950005
-1.8820431 -0.79205871 5.3950005
-1.833553 -0.6850704 5.256
-1.833553 -0.59848917 5.256
-1.865647 -0.52086836 5.348
-1.8495998 -0.42904919 5.302
-1.7152929 -0.31689724 4.9170003
-1.6486627 -0.22673683 4.7260003
-1.5300539 -0.13817498 4.3860002
-1.3294654 -0.057282407 3.8110001
-1.1686459 0.0048307888 3.3500001
-1.1560872 0.059369843 3.3140001
-1.1881814 0.11712448 3.4060001
-1.2153916 0.17719808 3.4840002
-1.4180732 0.2737101 4.0650001
-1.3992352 0.33614665 4.0110002
-1.3046972 0.37504357 3.7400002
-1.2366714 0.41388533 3.5450001
-1.2366714 0.47228152 3.5450001
-1.258649 0.54010868 3.6080003
-1.2436484 0.59239733 3.5650001
-1.2223687 0.63998181 3.5040002
-1.1815532 0.67440599 3.3870001
-1.1948094 0.73839188 3.4250002
-1.1498079 0.76487541 3.2960002
-1.1194581 0.79754734 3.2090001
-1.0796891 0.82019776 3.095
-1.047595 0.84528506 3.0030003
-0.99387228 0.84886819 2.8490002
-0.93282348 0.84077477 2.674
-0.91293907 0.86596185 2.6170001
-0.87526339 0.87155515 2.5090001
-0.83723879 0.87322646 2.4000001
-0.81177282 0.88499814 2.3270001
-2.3841629 -2.8254876 7.1730003
-2.0677371 -2.3480115 6.2210002
-2.2768042 -2.4725783 6.8500004
-2.7384803 -2.8382323 8.2390003
-2.6317861 -2.5972199 7.9180002
-2.8541489 -2.6752098 8.5870008
-2.3841629 -2.1165297 7.1730003
-2.5653102 -2.1502049 7.7180004
-2.155818 -1.7001319 6.4860005
-1.8590024 -1.3739232 5.5930004
-1.8094776 -1.2476431 5.4440002
-1.8257642 -1.1683874 5.493
-1.8939024 -1.1181298 5.6980004
-1.7775692 -0.96135187 5.348
-1.8423833 -0.90509599 5.5430002
-1.8762861 -0.82876211 5.6450005
-1.8423833 -0.72247821 5.5430002
-1.8762861 -0.64278376 5.6450005
-1.8590024 -0.54473013 5.5930004
-1.7931911 -0.43657497 5.3950005
-1.4475156 -0.28067672 4.355
-1.324535 -0.19118625 3.9850001
-1.2208323 -0.11571287 3.6730001
-1.1384021 -0.051480517 3.4250002
-1.1015079 0.0047788755 3.3140001
-1.1134737 0.060014781 3.3500001
-1.2281448 0.12706253 3.6950002
-1.4172691 0.21686931 4.2640004
-1.5352641 0.31101283 4.6190004
-1.5468973 0.39003405 4.6540003
-1.437212 0.43360656 4.3240004
-1.3072512 0.45918503 3.9330001
-1.2431018 0.49826038 3.7400002
-1.2906322 0.58127552 3.8830001
-1.2906322 0.64523953 3.8830001
-1.1919153 0.65495849 3.5860002
-1.1134737 0.66703868 3.3500001
-1.1450497 0.74270362 3.4450002
-1.1134737 0.77740669 3.3500001
-1.0722585 0.80177236 3.2260001
-1.0233986 0.81595773 3.0790002
-0.98849875 0.83712214 2.9740002
-0.95127207 0.8527416 2.8620002
-0.90872747 0.85964036 2.7340002
-0.87349504 0.86960179 2.628
-0.84092188 0.87884998 2.5300002
-0.79771245 0.87322646 2.4000001
-0.77045721 0.88157529 2.3180001
-2.0935411 -2.610415 6.6270003
-1.9261084 -2.3012099 6.0970001
-2.0489979 -2.3411887 6.4860005
-2.3487973 -2.5612645 7.4350004
-2.2660286 -2.352849 7.1730003
-2.3206811 -2.2885861 7.3460002
-2.0711117 -1.9344722 6.5560002
-2.0935411 -1.8462567 6.6270003
-2.0489979 -1.7001319 6.4860005
-1.8344945 -1.4264923 5.8070002
-1.7833169 -1.2937078 5.6450005
-1.80006 -1.2119921 5.6980004
-1.8171192 -1.1287264 5.7520003
-1.751094 -0.99640489 5.5430002
-1.7833169 -0.9217512 5.6450005
-1.8344945 -0.8525458 5.8070002
-1.8344945 -0.75688809 5.8070002
-1.8518695 -0.66749316 5.8620005
-1.8518695 -0.57092935 5.8620005
-1.7668895 -0.45259756 5.5930004
-1.3375666 -0.27287838 4.2340002
-1.1603405 -0.17621759 3.6730001
-1.0883129 -0.10853004 3.4450002
-1.0759923 -0.051194929 3.4060001
-1.06999 0.0048841434 3.3870001
-1.0943152 0.062057082 3.4640002
-1.2191 0.13270211 3.8590002
-1.3470439 0.21686931 4.2640004
-1.3956941 0.2974788 4.4180002
-1.4481354 0.38416761 4.5840001
-1.4591923 0.46318883 4.6190004
-1.3565212 0.50133246 4.2940001
-1.2506911 0.52743655 3.9590001
-1.2345796 0.58501798 3.9080002
-1.2191 0.64125144 3.8590002
-1.1132699 0.64363462 3.5240002
-1.0526149 0.66345465 3.3320003
-1.0883129 0.74270362 3.4450002
-1.0583013 0.77740669 3.3500001
-1.0191284 0.80177236 3.2260001
-0.9827987 0.82443792 3.1110001
-0.93509609 0.83318132 2.96
-0.89181638 0.84112144 2.8230002
-0.86370033 0.85964036 2.7340002
-0.83747965 0.87721246 2.651
-0.80241364 0.88232368 2.5400002
-0.7524997 0.86667734 2.3820002
-0.73512459 0.88499814 2.3270001
-1.6598045 -2.1834209 5.5430002
-1.6903474 -2.1306102 5.6450005
-1.7553263 -2.1159494 5.8620005
-1.8628258 -2.1430566 6.2210002
-1.7553263 -1.922822 5.8620005
-1.7062179 -1.7751653 5.6980004
-1.7062179 -1.681303 5.6980004
-1.738857 -1.6178079 5.8070002
-1.8077285 -1.5824385 6.0370002
-1.7723945 -1.4540052 5.9190001
-1.7897621 -1.3697948 5.9770002
-1.7897621 -1.2713367 5.9770002
-1.7223879 -1.1287264 5.7520003
-1.6903474 -1.0147403 5.6450005
-1.7223879 -0.93922287 5.7520003
-1.738857 -0.8525458 5.8070002
-1.738857 -0.75688809 5.8070002
-1.7553263 -0.66749316 5.8620005
-1.7723945 -0.57648087 5.9190001
-1.7223879 -0.46546414 5.7520003
-1.37264 -0.29543561 4.5840001
-1.127098 -0.18058346 3.7640002
-1.0615202 -0.11168041 3.5450001
-1.0675091 -0.053584829 3.5650001
-1.0615202 0.005111984 3.5450001
-1.0803851 0.064636819 3.6080003
-1.1777036 0.1352468 3.9330001
-1.2420834 0.21096946 4.1480002
-1.2678355 0.28508946 4.2340002
-1.3040679 0.36497596 4.355
-1.4151607 0.47391871 4.7260003
-1.37264 0.53519052 4.5840001
-1.2504678 0.5563463 4.1760001
-1.1627315 0.58127552 3.8830001
-1.1483583 0.63726336 3.8350003
-1.0492432 0.63998181 3.5040002
-1.0142086 0.67440599 3.3870001
-1.0432544 0.75111163 3.4840002
-0.98695934 0.76487541 3.2960002
-0.96599835 0.80177236 3.2260001
-0.93635368 0.82867801 3.1270001
-0.88185537 0.82895917 2.9450002
-0.8453235 0.84112144 2.8230002
-0.81148654 0.85209411 2.71
-0.78693235 0.86960179 2.628
-0.76058149 0.88232368 2.5400002
-0.71326977 0.86667734 2.3820002
-0.69680047 0.88499814 2.3270001
-1.5826638 -2.2031162 5.5930004
-1.5826638 -2.1109836 5.5930004
-1.6123757 -2.056752 5.6980004
-1.6913249 -2.0590017 5.9770002
-1.6432196 -1.9047811 5.8070002
-1.6123757 -1.7751653 5.6980004
-1.5973783 -1.6656644 5.6450005
-1.6276562 -1.6024851 5.7520003
-1.6587833 -1.536567 5.8620005
-1.6587833 -1.4400032 5.8620005
-1.6913249 -1.3697948 5.9770002
-1.6587833 -1.2468756 5.8620005
-1.6276562 -1.1287264 5.7520003
-1.6276562 -1.0339746 5.7520003
-1.6749126 -0.9664917 5.9190001
-1.6587833 -0.86062068 5.8620005
-1.6276562 -0.74971944 5.7520003
-1.6432196 -0.66123039 5.8070002
-1.6587833 -0.57092935 5.8620005
-1.4377819 -0.41116542 5.0810003
-1.2235719 -0.27867883 4.3240004
-1.0716158 -0.18168691 3.7870002
-1.0331316 -0.11501979 3.6510003
-1.0331316 -0.054877482 3.6510003
-1.0269061 0.0052331141 3.6290002
-1.0331316 0.065407157 3.6510003
-1.1276443 0.13703497 3.9850001
-1.1350015 0.20400158 4.0110002
-1.1350015 0.2700741 4.0110002
-1.1658456 0.34528154 4.1200004
-1.2501713 0.44303274 4.4180002
-1.3803385 0.56951559 4.8780003
-1.2875236 0.60617238 4.5500002
-1.0919899 0.57768279 3.8590002
-1.078407 0.63327527 3.8110001
-1.008796 0.65112299 3.5650001
-0.99153465 0.69770259 3.5040002
-0.99719405 0.75973517 3.5240002
-0.93776995 0.76905245 3.3140001
-0.90805781 0.79754734 3.2090001
-0.875799 0.82019776 3.095
-0.83759773 0.83318132 2.96
-0.80618787 0.84886819 2.8490002
-0.7668547 0.85209411 2.71
-0.7405383 0.86596185 2.6170001
-0.712807 0.87502885 2.5190001
-0.67913336 0.87322646 2.4000001
-0.66102314 0.888421 2.3360002
-1.4639004 -2.1637256 5.493
-1.4639004 -2.0732403 5.493
-1.4772257 -2.000803 5.5430002
-1.504409 -1.9446318 5.6450005
-1.5475823 -1.9047811 5.8070002
-1.5185336 -1.7751653 5.6980004
-1.504409 -1.6656644 5.6450005
-1.5329248 -1.6024851 5.7520003
-1.504409 -1.4796863 5.6450005
-1.4905508 -1.3739232 5.5930004
-1.4508418 -1.2476431 5.4440002
-1.4772257 -1.1790228 5.5430002
-1.4905508 -1.0975255 5.5930004
-1.4772257 -0.99640489 5.5430002
-1.5475823 -0.94820356 5.8070002
-1.5185336 -0.8365432 5.6980004
-1.4772257 -0.72247821 5.5430002
-1.4772257 -0.63116926 5.5430002
-1.504409 -0.54979467 5.6450005
-1.1859379 -0.36010352 4.4500003
-1.0348307 -0.25025666 3.8830001
-0.97300214 -0.17516211 3.6510003
-0.95567942 -0.11297206 3.5860002
-0.96154249 -0.054231152 3.6080003
-0.99672091 0.0053931791 3.7400002
-0.96154249 0.064636819 3.6080003
-1.0284348 0.13270211 3.8590002
-1.0481559 0.20003445 3.9330001
-1.0284348 0.25983945 3.8590002
-1.0284348 0.32340813 3.8590002
-1.0979921 0.41314963 4.1200004
-1.2309769 0.53927684 4.6190004
-1.1606201 0.58019352 4.355
-1.0156425 0.57049727 3.8110001
-0.99672091 0.62147719 3.7400002
-0.95008284 0.65112299 3.5650001
-0.93915623 0.70168489 3.5240002
-0.95008284 0.7685743 3.5650001
-0.90264535 0.78599298 3.3870001
-0.85973841 0.80177236 3.2260001
-0.82482648 0.82019776 3.095
-0.79657722 0.8413443 2.9890001
-0.76273137 0.8527416 2.8620002
-0.72542089 0.85586721 2.7220001
-0.69743812 0.86596185 2.6170001
-0.66865575 0.87155515 2.5090001
-0.63960695 0.87322646 2.4000001
-0.62494928 0.89184386 2.345
-1.2919235 -2.0353122 5.1670003
-1.2494178 -1.8860334 4.9970002
-1.2599192 -1.8188789 5.039
-1.2919235 -1.7799668 5.1670003
-1.3489312 -1.7696391 5.3950005
-1.3611829 -1.6960336 5.4440002
-1.3371795 -1.5780288 5.348
-1.3141764 -1.4643013 5.256
-1.3141764 -1.3777201 5.256
-1.325678 -1.3024387 5.302
-1.2494178 -1.1452007 4.9970002
-1.2599192 -1.0718195 5.039
-1.2704207 -0.9970547 5.0810003
-1.2599192 -0.90580636 5.039
-1.3029251 -0.85088497 5.2110004
-1.3141764 -0.77165157 5.256
-1.2704207 -0.66226083 5.0810003
-1.2919235 -0.58835495 5.1670003
-1.3141764 -0.51190799 5.256
-1.1376528 -0.36819574 4.5500002
-0.95887876 -0.2471631 3.8350003
-0.90737188 -0.17410663 3.6290002
-0.89136976 -0.11231048 3.5650001
-0.90212125 -0.054231152 3.6080003
-0.94112641 0.0054277875 3.7640002
-0.89136976 0.063866474 3.5650001
-0.89662045 0.12331427 3.5860002
-0.91837335 0.18681072 3.6730001
-0.90212125 0.24293877 3.6080003
-0.89136976 0.29876909 3.5650001
-0.94687718 0.37975669 3.7870002
-1.0586421 0.4943274 4.2340002
-1.0231373 0.54515547 4.092
-0.94112641 0.56346154 3.7640002
-0.92387414 0.61399949 3.6950002
-0.87111706 0.63632894 3.4840002
-0.87111706 0.69372028 3.4840002
-0.88111836 0.75973517 3.5240002
-0.86136574 0.79945254 3.4450002
-0.80660832 0.80177236 3.2260001
-0.76985347 0.81595773 3.0790002
-0.75085092 0.84528506 3.0030003
-0.7190966 0.85691297 2.8760002
-0.68059146 0.85586721 2.7220001
-0.65433788 0.86596185 2.6170001
-0.62983459 0.87502885 2.5190001
-0.5978303 0.8699519 2.391
-0.58182818 0.88499814 2.3270001
-1.1671207 -1.9683481 4.9970002
-1.1484356 -1.8558388 4.9170003
-1.1769303 -1.8188789 5.039
-1.1965497 -1.7648093 5.1230001
-1.2383577 -1.7391336 5.302
-1.2383577 -1.6517947 5.302
-1.1965497 -1.5116384 5.1230001
-1.1671207 -1.3921449 4.9970002
-1.2171035 -1.3659246 5.2110004
-1.2276137 -1.2911389 5.256
-1.1671207 -1.1452007 4.9970002
-1.1484356 -1.0458696 4.9170003
-1.157778 -0.97272187 4.9570003
-1.1769303 -0.90580636 5.039
-1.2171035 -0.85088497 5.2110004
-1.1965497 -0.75212544 5.1230001
-1.1671207 -0.65131217 4.9970002
-1.2276137 -0.59848917 5.256
-1.271524 -0.53021824 5.4440002
-1.0954164 -0.37952483 4.6900001
-0.95574492 -0.26372656 4.092
-0.89011347 -0.18283834 3.8110001
-0.84760475 -0.11432672 3.6290002
-0.85788155 -0.055208154 3.6730001
-0.86302 0.0053282878 3.6950002
-0.83756143 0.064242691 3.5860002
-0.80906665 0.11911897 3.4640002
-0.81373793 0.17719808 3.4840002
-0.8184092 0.23593611 3.5040002
-0.81373793 0.2919808 3.4840002
-0.83265662 0.35749474 3.5650001
-0.88450789 0.44213933 3.7870002
-0.87913585 0.50145775 3.7640002
-0.85274315 0.54654568 3.6510003
-0.84269994 0.59954268 3.6080003
-0.8184092 0.63998181 3.5040002
-0.82798529 0.70586634 3.5450001
-0.82308048 0.75973517 3.5240002
-0.79995757 0.79481131 3.4250002
-0.74950773 0.79754734 3.2090001
-0.7156409 0.81198257 3.0640001
-0.69812357 0.8413443 2.9890001
-0.66542464 0.84886819 2.8490002
-0.63576198 0.85586721 2.7220001
-0.6163761 0.87324172 2.6390002
-0.58834839 0.87502885 2.5190001
-0.55635011 0.86667734 2.3820002
-0.53929991 0.87815243 2.309
-1.1121774 -2.0179803 5.1230001
-1.1030595 -1.9177378 5.0810003
-1.1312817 -1.8809643 5.2110004
-1.1712273 -1.85851 5.3950005
-1.1925025 -1.8017845 5.493
-1.1712273 -1.6807681 5.3950005
-1.1121774 -1.5116384 5.1230001
-1.0422728 -1.33754 4.8010001
-1.1312817 -1.3659246 5.2110004
-1.1312817 -1.2800847 5.2110004
-1.0674559 -1.1268666 4.9170003
-1.0848234 -1.0628859 4.9970002
-1.1121774 -1.0052963 5.1230001
-1.1121774 -0.92090607 5.1230001
-1.1510373 -0.86574399 5.302
-1.1217296 -0.75858527 5.1670003
-1.0848234 -0.65131217 4.9970002
-1.1712273 -0.61431688 5.3950005
-1.2033572 -0.53986037 5.5430002
-0.97323668 -0.36277398 4.4830003
-0.89443123 -0.26553115 4.1200004
-0.85383439 -0.18869147 3.9330001
-0.82213855 -0.11930428 3.7870002
-0.80216587 -0.055538837 3.6950002
-0.80216587 0.0053282878 3.6950002
-0.81193513 0.067001581 3.7400002
-0.82213855 0.13022619 3.7870002
-0.82734883 0.19382946 3.8110001
-0.83255917 0.25822344 3.8350003
-0.79738975 0.30782017 3.6730001
-0.77394348 0.35749474 3.5650001
-0.82734883 0.44494134 3.8110001
-0.88249093 0.54155838 4.0650001
-0.85947883 0.5926525 3.9590001
-0.83776945 0.64125144 3.8590002
-0.81193513 0.68308556 3.7400002
-0.78783756 0.72259206 3.6290002
-0.77394348 0.7685743 3.5650001
-0.74355018 0.79481131 3.4250002
-0.70034826 0.80177236 3.2260001
-0.66843534 0.81595773 3.0790002
-0.64889681 0.8413443 2.9890001
-0.61285907 0.84112144 2.8230002
-0.59093249 0.85586721 2.7220001
-0.57291359 0.87324172 2.6390002
-0.54686219 0.87502885 2.5190001
-0.51494926 0.8630389 2.3720002
-0.50127226 0.87815243 2.309
-1.0823753 -2.125123 5.3950005
-1.0454602 -1.9668041 5.2110004
-1.0366327 -1.865082 5.1670003
-1.0544883 -1.8106261 5.256
-1.0823753 -1.7696391 5.3950005
-1.0544883 -1.6374638 5.256
-1.0454602 -1.5376046 5.2110004
-1.0278051 -1.427248 5.1230001
-1.0823753 -1.4141554 5.3950005
-1.0454602 -1.2800847 5.2110004
-0.97082746 -1.1089907 4.8390002
-1.0025263 -1.0628859 4.9970002
-1.0366327 -1.0139307 5.1670003
-1.0193789 -0.91335624 5.0810003
-1.0637171 -0.86574399 5.302
-1.0729458 -0.78515846 5.348
-1.0278051 -0.6677351 5.1230001
-1.092206 -0.61989635 5.4440002
-1.1991395 -0.58212978 5.9770002
-0.93371171 -0.37661165 4.6540003
-0.80470943 -0.25850618 4.0110002
-0.75515485 -0.18058346 3.7640002
-0.75976926 -0.11930428 3.7870002
-0.75033987 -0.056215219 3.7400002
-0.78404498 0.0056354394 3.9080002
-0.82096004 0.073307604 4.092
-0.86148643 0.14766075 4.2940001
-0.87994397 0.22307427 4.3860002
-0.86148643 0.28912947 4.2940001
-0.79427689 0.33178872 3.9590001
-0.76458424 0.38216338 3.8110001
-0.81554312 0.47459629 4.0650001
-0.91284662 0.60617238 4.5500002
-0.88636404 0.66136366 4.4180002
-0.86148643 0.71353555 4.2940001
-0.82096004 0.74737591 4.092
-0.75515485 0.74947274 3.7640002
-0.7194435 0.77310169 3.5860002
-0.68714279 0.79481131 3.4250002
-0.65062892 0.80599749 3.2430003
-0.62414634 0.82443792 3.1110001
-0.59966999 0.8413443 2.9890001
-0.56897432 0.84499478 2.8360002
-0.54851049 0.85964036 2.7340002
-0.52945107 0.87324172 2.6390002
-0.50537592 0.87502885 2.5190001
-0.47969586 0.8699519 2.391
-0.46685585 0.88499814 2.3270001
-1.0207784 -2.1834209 5.5430002
-0.96792555 -1.9837886 5.256
-0.92796361 -1.8188789 5.039
-0.95153564 -1.7799668 5.1670003
-0.9596386 -1.7092844 5.2110004
-0.93569821 -1.582944 5.0810003
-0.95153564 -1.5246214 5.1670003
-0.94343275 -1.427248 5.1230001
-0.98486793 -1.4018354 5.348
-0.9596386 -1.2800847 5.2110004
-0.91286278 -1.1360335 4.9570003
-0.96792555 -1.1179764 5.256
-0.95153564 -1.0139307 5.1670003
-0.90549666 -0.88387579 4.9170003
-0.96792555 -0.8582328 5.256
-1.0207784 -0.8137871 5.5430002
-0.94343275 -0.6677351 5.1230001
-0.96792555 -0.59848917 5.256
-1.1117517 -0.58797348 6.0370002
-0.96792555 -0.42532676 5.256
-0.69316435 -0.18058346 3.7640002
-0.69739997 -0.11930428 3.7870002
-0.71065921 -0.058003884 3.8590002
-0.75872403 0.0059411493 4.1200004
-0.79076719 0.07692641 4.2940001
-0.81949562 0.15302524 4.4500003
-0.85061806 0.23492478 4.6190004
-0.83791119 0.3063668 4.5500002
-0.76903677 0.34997466 4.1760001
-0.73865098 0.40221918 4.0110002
-0.77437735 0.49094161 4.2050004
-0.81949562 0.59284991 4.4500003
-0.81360257 0.66136366 4.4180002
-0.78524256 0.70855045 4.2640004
-0.70623946 0.70043671 3.8350003
-0.66038454 0.71403009 3.5860002
-0.64160061 0.75111163 3.4840002
-0.62023848 0.78158385 3.3680003
-0.59721893 0.80599749 3.2430003
-0.5817498 0.83715832 3.1590002
-0.55578375 0.84950721 3.0180001
-0.52466136 0.84886819 2.8490002
-0.50569326 0.86341345 2.7460001
-0.48819837 0.87721246 2.651
-0.46388975 0.87502885 2.5190001
-0.44197515 0.87322646 2.4000001
-0.43018916 0.888421 2.3360002
-0.89679003 -2.1066091 5.348
-0.86643869 -1.950197 5.1670003
-0.85906047 -1.8491995 5.1230001
-0.8813628 -1.8106261 5.256
-0.8813628 -1.7240448 5.256
-0.86643869 -1.6097367 5.1670003
-0.85201758 -1.4992455 5.0810003
-0.8449747 -1.4038459 5.039
-0.8813628 -1.3777201 5.256
-0.91288805 -1.3373212 5.4440002
-0.90467137 -1.2364134 5.3950005
-0.91288805 -1.1579649 5.4440002
-0.86643869 -1.0139307 5.1670003
-0.81797713 -0.87686509 4.8780003
-0.88907635 -0.86574399 5.302
-0.91288805 -0.79925257 5.4440002
-0.8449747 -0.6567865 5.039
-0.88907635 -0.6037271 5.302
-1.0022651 -0.58212978 5.9770002
-0.91288805 -0.44054016 5.4440002
-0.67712003 -0.193729 4.0380001
-0.66387278 -0.12472292 3.9590001
-0.67712003 -0.0606944 4.0380001
-0.70512384 0.0060637216 4.2050004
-0.75727451 0.080903508 4.5160003
-0.76297581 0.15646401 4.5500002
-0.76867718 0.23314466 4.5840001
-0.74620718 0.29963347 4.4500003
-0.72507858 0.362378 4.3240004
-0.72507858 0.43360656 4.3240004
-0.71501738 0.49782994 4.2640004
-0.67712003 0.5379613 4.0380001
-0.63117385 0.56346154 3.7640002
-0.61222523 0.60668802 3.6510003
-0.57768166 0.62920582 3.4450002
-0.5711419 0.67818922 3.4060001
-0.55873305 0.71834213 3.3320003
-0.55269635 0.76487541 3.2960002
-0.54095823 0.80177236 3.2260001
-0.53240621 0.84139842 3.1750002
-0.50859469 0.85372949 3.0330002
-0.47992018 0.8527416 2.8620002
-0.46466067 0.87127411 2.7710001
-0.44839501 0.88482308 2.674
-0.42592496 0.88232368 2.5400002
-0.40093958 0.8699519 2.391
-0.39020762 0.88499814 2.3270001
-0.82322901 -2.1444242 5.4440002
-0.77468812 -1.9335901 5.1230001
-0.78799534 -1.8809643 5.2110004
-0.80175608 -1.8264726 5.302
-0.80871212 -1.7542222 5.348
-0.80871212 -1.6661257 5.348
-0.78799534 -1.5376046 5.2110004
-0.77468812 -1.427248 5.1230001
-0.80175608 -1.3897778 5.302
-0.82322901 -1.3373212 5.4440002
-0.85362381 -1.2937078 5.6450005
-0.82322901 -1.1579649 5.4440002
-0.76833707 -0.9970547 5.0810003
-0.76833707 -0.91335624 5.0810003
-0.83063865 -0.89693171 5.493
-0.80175608 -0.77840507 5.302
-0.76833707 -0.66226083 5.0810003
-0.83063865 -0.62547582 5.493
-0.87812102 -0.56557262 5.8070002
-0.73763984 -0.3947382 4.8780003
-0.62301683 -0.26553115 4.1200004
-0.61469984 -0.19502437 4.0650001
-0.60653406 -0.1263611 4.0110002
-0.61061692 -0.0606944 4.0380001
-0.62301683 0.0059411493 4.1200004
-0.70376706 0.083375759 4.6540003
-0.71465474 0.16251625 4.7260003
-0.69847447 0.23492478 4.6190004
-0.66807967 0.2974788 4.4180002
-0.67291868 0.37293756 4.4500003
-0.72024971 0.47762901 4.763
-0.66807967 0.51580977 4.4180002
-0.55209571 0.48640338 3.6510003
-0.51504743 0.50986975 3.4060001
-0.50930113 0.55966181 3.3680003
-0.50113541 0.60527956 3.3140001
-0.49841347 0.65628648 3.2960002
-0.50113541 0.71446151 3.3140001
-0.49569154 0.76069826 3.2780001
-0.4878282 0.80177236 3.2260001
-0.47769666 0.83715832 3.1590002
-0.45637494 0.84950721 3.0180001
-0.42885333 0.84499478 2.8360002
-0.41720957 0.86750096 2.7590001
-0.40435606 0.88482308 2.674
-0.38575628 0.88614482 2.5510001
-0.3644346 0.87686497 2.4100001
-0.35188353 0.88499814 2.3270001
-0.76779616 -2.2444763 5.6980004
-0.70823735 -1.9837886 5.256
-0.72696745 -1.947381 5.3950005
-0.70217371 -1.7951244 5.2110004
-0.69031578 -1.680419 5.1230001
-0.73357004 -1.6960336 5.4440002
-0.72696745 -1.5918972 5.3950005
-0.70823735 -1.4643013 5.256
-0.74017268 -1.4398433 5.493
-0.74691015 -1.3616406 5.5430002
-0.7824837 -1.3308346 5.8070002
-0.74691015 -1.1790228 5.5430002
-0.75364763 -1.0975255 5.5930004
-0.7824837 -1.0438614 5.8070002
-0.79757553 -0.9664917 5.9190001
-0.74691015 -0.8137871 5.5430002
-0.72696745 -0.70318776 5.3950005
-0.76779616 -0.64881879 5.6980004
-0.76779616 -0.55495661 5.6980004
-0.66255766 -0.39789417 4.9170003
-0.55516326 -0.26553115 4.1200004
-0.54411387 -0.193729 4.0380001
-0.54411387 -0.1272117 4.0380001
-0.54411387 -0.0606944 4.0380001
-0.55516326 0.0059411493 4.1200004
-0.62240267 0.082748748 4.6190004
-0.68465638 0.17472386 5.0810003
-0.66794759 0.25211564 4.9570003
-0.61310506 0.3063668 4.5500002
-0.63682073 0.39606807 4.7260003
-0.69624478 0.51814175 5.1670003
-0.61310506 0.53122097 4.5500002
-0.47768289 0.47228152 3.5450001
-0.4642081 0.51570803 3.4450002
-0.50099438 0.61782146 3.7180002
-0.45140696 0.61185467 3.3500001
-0.44170511 0.65270233 3.2780001
-0.45639271 0.73019952 3.3870001
-0.44655603 0.76905245 3.3140001
-0.43698892 0.80599749 3.2430003
-0.42782605 0.84139842 3.1750002
-0.40667054 0.84950721 3.0180001
-0.37864289 0.83724803 2.8100002
-0.36840203 0.85964036 2.7340002
-0.36031708 0.88482308 2.674
-0.34374306 0.88614482 2.5510001
-0.32339606 0.87322646 2.4000001
-0.31355944 0.88499814 2.3270001
-0.70695382 -2.3543761 5.9770002
-0.66153467 -2.1109836 5.5930004
-0.68684632 -2.0960965 5.8070002
-0.65562075 -1.9094942 5.5430002
-0.63811547 -1.7696391 5.3950005
-0.65562075 -1.7268764 5.5430002
-0.67395401 -1.681303 5.6980004
-0.65562075 -1.5442585 5.5430002
-0.66153467 -1.4660558 5.5930004
-0.68684632 -1.4264923 5.8070002
-0.70695382 -1.3697948 5.9770002
-0.66768515 -1.2007188 5.6450005
-0.70695382 -1.1728785 5.9770002
-0.73581392 -1.1182816 6.2210002
-0.72836238 -1.0055171 6.1580005
-0.69335175 -0.86062068 5.8620005
-0.67395401 -0.74268103 5.6980004
-0.71405053 -0.68741995 6.0370002
-0.70695382 -0.58212978 5.9770002
-0.63811547 -0.43657497 5.3950005
-0.53414816 -0.29105309 4.5160003
-0.48399779 -0.19631973 4.092
-0.49393326 -0.13155919 4.1760001
-0.48730966 -0.061926927 4.1200004
-0.47441721 0.0057839681 4.0110002
-0.54219109 0.082121722 4.5840001
-0.60097581 0.17472386 5.0810003
-0.60097581 0.25842234 5.0810003
-0.57235229 0.32582614 4.8390002
-0.57235229 0.40553817 4.8390002
-0.59600806 0.50530601 5.039
-0.52255678 0.51580977 4.4180002
-0.41208419 0.46415484 3.4840002
-0.3775467 0.47783452 3.1920002
-0.4006111 0.562819 3.3870001
-0.37955743 0.58610201 3.2090001
-0.37175101 0.62582165 3.1430001
-0.39197671 0.71446151 3.3140001
-0.37955743 0.74468595 3.2090001
-0.37553596 0.78909719 3.1750002
-0.37175101 0.83291811 3.1430001
-0.35696614 0.84950721 3.0180001
-0.33390173 0.84112144 2.8230002
-0.3233749 0.85964036 2.7340002
-0.31627816 0.88482308 2.674
-0.29924598 0.87884998 2.5300002
-0.28386968 0.87322646 2.4000001
-0.27736434 0.89184386 2.345
-0.59120905 -1.6178079 5.8070002
-0.59120905 -1.52215 5.8070002
-0.64659351 -1.5601262 6.3510003
-0.61462528 -1.3835454 6.0370002
-0.5856095 -1.2234781 5.7520003
-0.60851669 -1.1728785 5.9770002
-0.62073386 -1.0959915 6.0970001
-0.62073386 -0.99555665 6.0970001
-0.62694424 -0.90407741 6.1580005
-0.62694424 -0.80263776 6.1580005
-0.62694424 -0.70119798 6.1580005
-0.62073386 -0.59381717 6.0970001
-0.60851669 -0.48367164 5.9770002
-0.56942177 -0.36046499 5.5930004
-0.47382244 -0.22328252 4.6540003
-0.44653744 -0.13817498 4.3860002
-0.43411666 -0.064091362 4.2640004
-0.39044029 0.0055301716 3.8350003
-0.42810988 0.075331993 4.2050004
-0.50059837 0.1690843 4.9170003
-0.47382244 0.2367049 4.6540003
-0.42230672 0.27929881 4.1480002
-0.41660535 0.34293494 4.092
-0.39288372 0.38697678 3.8590002
-0.35266885 0.40442845 3.4640002
-0.31835899 0.41659361 3.1270001
-0.30278212 0.44520047 2.9740002
-0.30278212 0.49419066 2.9740002
-0.30430925 0.54592049 2.9890001
-0.3087889 0.60391897 3.0330002
-0.31510109 0.66724753 3.095
-0.31510109 0.71823096 3.095
-0.31347212 0.76523787 3.0790002
-0.31194496 0.81198257 3.0640001
-0.30726174 0.84950721 3.0180001
-0.29137945 0.8527416 2.8620002
-0.27956948 0.86341345 2.7460001
-0.27223918 0.88482308 2.674
-0.25645867 0.87502885 2.5190001
-0.24434333 0.87322646 2.4000001
-0.23874378 0.89184386 2.345
-0.52032042 -1.6986006 6.0970001
-0.5419969 -1.6647452 6.3510003
-0.55949163 -1.6104846 6.5560002
-0.52552617 -1.411276 6.1580005
-0.52032042 -1.2968612 6.0970001
-0.52032042 -1.1964264 6.0970001
-0.51007956 -1.0744205 5.9770002
-0.53090262 -1.0158042 6.2210002
-0.5419969 -0.93241245 6.3510003
-0.52552617 -0.80263776 6.1580005
-0.51520002 -0.68741995 6.0370002
-0.51007956 -0.58212978 5.9770002
-0.50512981 -0.47897813 5.9190001
-0.51520002 -0.38908046 6.0370002
-0.4955717 -0.27859938 5.8070002
-0.42644596 -0.15742369 4.9970002
-0.37430298 -0.065925121 4.3860002
-0.31157783 0.0052648392 3.6510003
-0.28435421 0.059692316 3.3320003
-0.27095577 0.16148217 3.1750002
-0.2682249 0.21162875 3.1430001
-0.25260758 0.24806632 2.96
-0.24202539 0.28439134 2.8360002
-0.24091597 0.3295905 2.8230002
-0.24202539 0.37782526 2.8360002
-0.24663377 0.43262586 2.8900001
-0.25132748 0.48937175 2.9450002
-0.25755733 0.55121714 3.0180001
-0.26549399 0.61944997 3.1110001
-0.26549399 0.67069697 3.1110001
-0.26685944 0.72565693 3.1270001
-0.26412854 0.76921433 3.095
-0.26276308 0.81595773 3.0790002
-0.25883746 0.85372949 3.0330002
-0.24663377 0.86108428 2.8900001
-0.23545417 0.86750096 2.7590001
-0.22922432 0.88879389 2.6860001
-0.21676463 0.88232368 2.5400002
-0.20481695 0.87322646 2.4000001
-0.19935519 0.888421 2.3360002
-0.44669786 -2.5548742 6.4860005
-0.46653274 -2.5567322 6.7740002
-0.4515188 -2.3664558 6.5560002
-0.47176695 -2.3597393 6.8500004
-0.4515188 -2.1504641 6.5560002
-0.44669786 -2.0206602 6.4860005
-0.45640868 -1.9554222 6.6270003
-0.4420146 -1.7880301 6.4180002
-0.4420146 -1.6823074 6.4180002
-0.43740025 -1.5601262 6.3510003
-0.43285477 -1.4403815 6.2850003
-0.43740025 -1.3508883 6.3510003
-0.43285477 -1.233318 6.2850003
-0.42410815 -1.1069568 6.1580005
-0.42844698 -1.0158042 6.2210002
-0.44669786 -0.95223218 6.4860005
-0.42844698 -0.81084913 6.2210002
-0.41990697 -0.69425201 6.0970001
-0.41577473 -0.58797348 6.0370002
-0.41164246 -0.48367164 5.9770002
-0.42844698 -0.40093914 6.2210002
-0.39242744 -0.27336994 5.6980004
-0.34139395 -0.15616356 4.9570003
-0.2936663 -0.064091362 4.2640004
-0.23856944 0.0049951798 3.4640002
-0.19710904 0.051272329 2.8620002
-0.1953184 0.097523503 2.8360002
-0.19442308 0.14357927 2.8230002
-0.19903743 0.19459341 2.8900001
-0.19442308 0.2365849 2.8230002
-0.19352776 0.28178409 2.8100002
-0.19352776 0.32807276 2.8100002
-0.19084178 0.36916566 2.7710001
-0.20089693 0.43666768 2.9170001
-0.21983649 0.53041583 3.1920002
-0.22823876 0.60527956 3.3140001
-0.22823876 0.65987051 3.3140001
-0.2257594 0.70670027 3.2780001
-0.2257594 0.76069826 3.2780001
-0.22334893 0.80599749 3.2430003
-0.21983649 0.84590352 3.1920002
-0.208886 0.85372949 3.0330002
-0.19807324 0.85691297 2.8760002
-0.1917371 0.87536168 2.7840002
-0.18498772 0.88879389 2.6860001
-0.17569013 0.88614482 2.5510001
-0.16597931 0.87686497 2.4100001
-0.16088286 0.888421 2.3360002
-0.3472665 -2.610415 6.6270003
-0.35895211 -2.5854173 6.8500004
-0.35496953 -2.4451451 6.7740002
-0.37587786 -2.4710088 7.1730003
-0.35895211 -2.2469006 6.8500004
-0.38960713 -2.3163133 7.4350004
-0.43173814 -2.4310732 8.2390003
-0.36723155 -1.9524019 7.0080004
-0.35496953 -1.7756232 6.7740002
-0.3472665 -1.6279258 6.6270003
-0.38033199 -1.6633713 7.2580004
-0.38033199 -1.5438116 7.2580004
-0.38033199 -1.4242518 7.2580004
-0.35895211 -1.2313502 6.8500004
-0.33987784 -1.0590751 6.4860005
-0.3472665 -0.97293293 6.6270003
-0.32934508 -0.81919098 6.2850003
-0.31949356 -0.69425201 6.0970001
-0.32599136 -0.60589415 6.2210002
-0.31634945 -0.48852697 6.0370002
-0.32599136 -0.40093914 6.2210002
-0.27542365 -0.25216433 5.256
-0.22983414 -0.13817498 4.3860002
-0.21301317 -0.061100233 4.0650001
-0.16815726 0.0046274629 3.2090001
-0.14929263 0.051039439 2.8490002
-0.14793019 0.097076461 2.8230002
-0.14656775 0.1422569 2.7970002
-0.1514411 0.19459341 2.8900001
-0.14929263 0.23876385 2.8490002
-0.14793019 0.2830877 2.8230002
-0.14724895 0.32807276 2.8100002
-0.14588651 0.37089756 2.7840002
-0.15358958 0.43876347 2.9310002
-0.16904809 0.53606558 3.2260001
-0.17848042 0.62208271 3.4060001
-0.17177297 0.65270233 3.2780001
-0.17271623 0.71058089 3.2960002
-0.17460269 0.7732296 3.3320003
-0.17365944 0.82364345 3.3140001
-0.16993892 0.85941887 3.2430003
-0.15814853 0.84950721 3.0180001
-0.14997385 0.8527416 2.8620002
-0.14588651 0.87536168 2.7840002
-0.14012231 0.88482308 2.674
-0.13310049 0.88232368 2.5400002
-0.12675987 0.88013953 2.4190001
-0.12288213 0.89184386 2.345
-0.23812433 -2.610415 6.6270003
-0.26715773 -2.3163133 7.4350004
-0.33194396 -2.7258475 9.2380009
-0.26715773 -2.0713625 7.4350004
-0.24893999 -1.8159903 6.9280005
-0.24340639 -1.6640364 6.7740002
-0.24613726 -1.5698669 6.8500004
-0.25774345 -1.5257316 7.1730003
-0.27384117 -1.4954839 7.6210003
-0.26079768 -1.3046919 7.2580004
-0.23812433 -1.0820985 6.6270003
-0.23557311 -0.9625091 6.5560002
-0.22583541 -0.81919098 6.2850003
-0.22353576 -0.70837164 6.2210002
-0.22583541 -0.61212742 6.2850003
-0.22353576 -0.5034166 6.2210002
-0.22353576 -0.40093914 6.2210002
-0.18257277 -0.24376847 5.0810003
-0.1564858 -0.13719836 4.355
-0.1480417 -0.061926927 4.1200004
-0.12378728 0.0049677812 3.4450002
-0.10283867 0.051272329 2.8620002
-0.1014373 0.097076461 2.8230002
-0.10190441 0.14424045 2.8360002
-0.105318 0.19735408 2.9310002
-0.10384477 0.24219991 2.8900001
-0.10237154 0.28569496 2.8490002
-0.10190441 0.3311083 2.8360002
-0.10384477 0.38501936 2.8900001
-0.10582106 0.44085923 2.9450002
-0.110636 0.51163858 3.0790002
-0.12102048 0.61514235 3.3680003
-0.11591806 0.64234829 3.2260001
-0.11778656 0.70670027 3.2780001
-0.1203737 0.77740669 3.3500001
-0.11778656 0.81469619 3.2780001
-0.11591806 0.85491377 3.2260001
-0.10898311 0.85372949 3.0330002
-0.10283867 0.8527416 2.8620002
-0.10003594 0.87536168 2.7840002
-0.096083358 0.88482308 2.674
-0.090513825 0.87502885 2.5190001
-0.086597197 0.87686497 2.4100001
-0.084584981 0.89526671 2.3540001
-0.1363976 -2.183285 7.0080004
-0.18836415 -2.8556776 9.6780005
-0.15821578 -2.264708 8.1290007
-0.13797411 -1.8581921 7.0890002
-0.13332243 -1.6827059 6.8500004
-0.12760025 -1.5024886 6.5560002
-0.13040295 -1.4251223 6.7000003
-0.14297614 -1.4415201 7.3460002
-0.1561332 -1.4420278 8.0220003
-0.13484055 -1.1312475 6.9280005
-0.13040295 -0.98365033 6.7000003
-0.12760025 -0.85451323 6.5560002
-0.12623785 -0.73854667 6.4860005
-0.12491436 -0.625081 6.4180002
-0.12623785 -0.52486104 6.4860005
-0.12361033 -0.40931755 6.3510003
-0.098074697 -0.24175346 5.039
-0.087895483 -0.14227045 4.5160003
-0.084761918 -0.065459162 4.355
-0.06938605 0.0051408242 3.5650001
-0.056501456 0.052006837 2.9030001
-0.054691393 0.096629426 2.8100002
-0.055703472 0.14556284 2.8620002
-0.057318911 0.19829676 2.9450002
-0.056773942 0.24446267 2.9170001
-0.055703472 0.2869986 2.8620002
-0.055975951 0.33577836 2.8760002
-0.058739722 0.40207213 3.0180001
-0.058739722 0.45178714 3.0180001
-0.060238376 0.51429725 3.095
-0.063118927 0.59231192 3.2430003
-0.062126301 0.63557839 3.1920002
-0.063118927 0.69915473 3.2430003
-0.063449793 0.75652117 3.2600002
-0.062457178 0.79754734 3.2090001
-0.062126301 0.84590352 3.1920002
-0.059926972 0.86667752 3.0790002
-0.055975951 0.85691297 2.8760002
-0.053932328 0.87127411 2.7710001
-0.05227796 0.88879389 2.6860001
-0.049650438 0.88614482 2.5510001
-0.047275938 0.88377798 2.4290001
-0.045816202 0.89526671 2.3540001
-0.020507595 -2.1340616 6.8500004
-0.025351577 -2.4986444 8.4680004
-0.025004296 -2.3268349 8.3520002
-0.020980617 -1.8369602 7.0080004
-0.020058522 -1.6458582 6.7000003
-0.020280063 -1.5524493 6.7740002
-0.019627415 -1.3944927 6.5560002
-0.020280063 -1.3292754 6.7740002
-0.023704981 -1.4233329 7.9180002
-0.020980617 -1.1443105 7.0080004
-0.020507595 -1.0056723 6.8500004
-0.020507595 -0.89283341 6.8500004
-0.020507595 -0.77999455 6.8500004
-0.019627415 -0.63852143 6.5560002
-0.019839974 -0.53627104 6.6270003
-0.019839974 -0.42710555 6.6270003
-0.015085803 -0.24175346 5.039
