ply
format ascii 1.0
comment PCL generated
element vertex 1375
property float x
property float y
property float z
element face 0
element camera 0
property float view_px
property float view_py
property float view_pz
property float x_axisx
property float x_axisy
property float x_axisz
property float y_axisx
property float y_axisy
property float y_axisz
property float z_axisx
property float z_axisy
property float z_axisz
property float focal
property float scalex
property float scaley
property float centerx
property float centery
property int viewportx
property int viewporty
property float k1
property float k2
end_header
-0.12888516 0.0092636505 0.26800001
-0.12792334 0.015311092 0.266
-0.12744243 0.021347109 0.26500002
-0.1269615 0.027337136 0.264
-0.12599969 0.033154633 0.26200002
-0.12551877 0.039029688 0.26100001
-0.12455694 0.044686221 0.259
-0.12407602 0.050446302 0.25800002
-0.12311419 0.055941872 0.25600001
-0.12215237 0.061345462 0.25400001
-0.12167145 0.066921592 0.25300002
-0.12070962 0.072164223 0.25100002
-0.1202287 0.077625364 0.25
-0.11974779 0.083040535 0.24900001
-0.11878596 0.088053212 0.24700001
-0.11830505 0.093353398 0.24600001
-0.13692953 -0.099671148 0.29900002
-0.13372383 -0.090623274 0.29200003
-0.13326585 -0.083621472 0.29100001
-0.13280791 -0.07666567 0.29000002
-0.13143402 -0.069273122 0.287
-0.13097607 -0.062455282 0.28600001
-0.13006015 -0.055488057 0.28400001
-0.12914424 -0.048612807 0.28200001
-0.12822832 -0.041829541 0.28
-0.12777036 -0.035264648 0.27900001
-0.12731241 -0.028745743 0.27800003
-0.12639649 -0.022192419 0.27600002
-0.12548058 -0.015731074 0.27400002
-0.12456466 -0.0093617085 0.27200001
-0.1241067 -0.0030957439 0.27100003
-0.1241067 0.0031358022 0.27100003
-0.12319078 0.0092982175 0.26900002
-0.12227486 0.015368653 0.26700002
-0.1218169 0.021427665 0.266
-0.12044302 0.027233588 0.26300001
-0.11998507 0.033154633 0.26200002
-0.11952711 0.039029688 0.26100001
-0.11861119 0.044686221 0.259
-0.11769527 0.050250772 0.257
-0.11769527 0.056160394 0.257
-0.11677936 0.061586987 0.25500003
-0.11586345 0.066921592 0.25300002
-0.11494753 0.072164223 0.25100002
-0.11494753 0.077935874 0.25100002
-0.11448956 0.083374023 0.25
-0.11311569 0.088053212 0.24700001
-0.11265774 0.093353398 0.24600001
-0.1274555 -0.090933621 0.29300001
-0.12702051 -0.083908841 0.29200003
-0.1265855 -0.076930031 0.29100001
-0.1252805 -0.069514491 0.28800002
-0.12484548 -0.062673658 0.287
-0.12441049 -0.055878822 0.28600001
-0.12354048 -0.048957583 0.28400001
-0.12310549 -0.042277716 0.28300002
-0.12223548 -0.035517439 0.28100002
-0.12136547 -0.028849142 0.27900001
-0.12093048 -0.022353236 0.27800003
-0.11962548 -0.015788486 0.27500001
-0.11875547 -0.0093961256 0.273
-0.11832047 -0.0031071673 0.27200001
-0.11788548 0.0031358022 0.27100003
-0.11701547 0.0092982175 0.26900002
-0.11658046 0.015426212 0.26800001
-0.11571046 0.021427665 0.266
-0.11484046 0.027337136 0.264
-0.11440545 0.033281177 0.26300001
-0.11353545 0.039029688 0.26100001
-0.11266544 0.044686221 0.259
-0.11223045 0.050446302 0.25800002
-0.11179544 0.056160394 0.257
-0.11136045 0.061828498 0.25600001
-0.11049043 0.067186095 0.25400001
-0.11005544 0.072739236 0.25300002
-0.10918543 0.077935874 0.25100002
-0.10875043 0.083374023 0.25
-0.10788043 0.088409707 0.24800001
-0.10744543 0.093732886 0.24700001
-0.12649786 -0.10233792 0.30700001
-0.12155333 -0.091554329 0.29500002
-0.12114128 -0.084483549 0.294
-0.12072924 -0.077458762 0.29300001
-0.1194931 -0.069997236 0.29000002
-0.11825696 -0.062673658 0.287
-0.11825696 -0.056074198 0.287
-0.11743288 -0.04912997 0.28500003
-0.11660878 -0.042277716 0.28300002
-0.11619674 -0.035643835 0.28200001
-0.11537264 -0.028952545 0.28
-0.11454856 -0.022353236 0.27800003
-0.11413651 -0.015903313 0.27700001
-0.11331242 -0.0094649615 0.27500001
-0.11248832 -0.0031185905 0.273
-0.11166424 0.0031358022 0.27100003
-0.11125219 0.0093327826 0.27000001
-0.11042809 0.015426212 0.26800001
-0.11001607 0.021508221 0.26700002
-0.10919198 0.02744069 0.26500002
-0.10836788 0.033281177 0.26300001
-0.10795584 0.039179228 0.26200002
-0.10713175 0.044858754 0.26000002
-0.1067197 0.050641827 0.259
-0.10630766 0.05637892 0.25800002
-0.10589561 0.062070016 0.257
-0.10507153 0.06745062 0.25500003
-0.10465948 0.073026732 0.25400001
-0.10383538 0.07824637 0.252
-0.10301129 0.083374023 0.25
-0.10301129 0.089122683 0.25
-0.1021872 0.094112374 0.24800001
-0.12022839 -0.10300463 0.30900002
-0.1159484 -0.092485391 0.29800001
-0.11439204 -0.084483549 0.294
-0.11400296 -0.077458762 0.29300001
-0.11283571 -0.069997236 0.29000002
-0.11205753 -0.062892035 0.28800002
-0.11166843 -0.056074198 0.287
-0.11089027 -0.04912997 0.28500003
-0.11011209 -0.042277716 0.28300002
-0.10972299 -0.035643835 0.28200001
-0.10894481 -0.028952545 0.28
-0.10816664 -0.022353236 0.27800003
-0.10777754 -0.015903313 0.27700001
-0.10738847 -0.0094993804 0.27600002
-0.10661028 -0.0031300141 0.27400002
-0.10622118 0.0031589444 0.273
-0.10544302 0.0093673486 0.27100003
-0.10466485 0.015483773 0.26900002
-0.10388666 0.021508221 0.26700002
-0.10349757 0.027544236 0.266
-0.10271939 0.033407722 0.264
-0.1023303 0.039328765 0.26300001
-0.10194122 0.045203824 0.26200002
-0.10116304 0.05083736 0.26000002
-0.10077395 0.056597441 0.259
-0.09999577 0.062070016 0.257
-0.099606693 0.067715123 0.25600001
-0.099217609 0.07331425 0.25500003
-0.098439425 0.078556873 0.25300002
-0.097661249 0.083707526 0.25100002
-0.09727215 0.089122683 0.25
-0.096883066 0.094491862 0.24900001
-0.14279151 -0.13897374 0.39000002
-0.1142332 -0.10400467 0.31200001
-0.1094735 -0.092795752 0.29900002
-0.10837509 -0.085058272 0.296
-0.10764282 -0.077723123 0.294
-0.10691057 -0.070479974 0.29200003
-0.1061783 -0.063328788 0.29000002
-0.1050799 -0.056074198 0.287
-0.1050799 -0.049474739 0.287
-0.10398151 -0.042427104 0.28400001
-0.10361538 -0.035770234 0.28300002
-0.10288312 -0.029055949 0.28100002
-0.10215085 -0.02243364 0.27900001
-0.10178472 -0.015960725 0.27800003
-0.10105246 -0.0094993804 0.27600002
-0.10032019 -0.0031300141 0.27400002
-0.099954054 0.0031589444 0.273
-0.099221796 0.0093673486 0.27100003
-0.098855659 0.015541333 0.27000001
-0.098123394 0.021588774 0.26800001
-0.097391129 0.027544236 0.266
-0.097025 0.033534266 0.26500002
-0.096658863 0.039478302 0.264
-0.096292734 0.045376353 0.26300001
-0.095560469 0.051032886 0.26100001
-0.094828203 0.056597441 0.259
-0.094095938 0.062070016 0.257
-0.094095938 0.067979634 0.257
-0.093729809 0.073601753 0.25600001
-0.092631422 0.078556873 0.25300002
-0.092265278 0.084041014 0.252
-0.091899157 0.089479178 0.25100002
-0.091533013 0.094871342 0.25
-0.10775712 -0.10467136 0.31400001
-0.10260949 -0.092795752 0.29900002
-0.10157995 -0.085058272 0.296
-0.10089359 -0.077723123 0.294
-0.10055043 -0.070721336 0.29300001
-0.099864081 -0.063547157 0.29100001
-0.099177726 -0.056464955 0.289
-0.098491371 -0.049474739 0.287
-0.098148197 -0.042725887 0.28600001
-0.097461842 -0.035896629 0.28400001
-0.096775495 -0.029159348 0.28200001
-0.09608914 -0.022514047 0.28
-0.095745973 -0.016018137 0.27900001
-0.095059618 -0.0095337983 0.27700001
-0.094373263 -0.0031414374 0.27500001
-0.094030097 0.0031705159 0.27400002
-0.09334375 0.0094019137 0.27200001
-0.092657395 0.015541333 0.27000001
-0.09197104 0.021588774 0.26800001
-0.091627866 0.027647788 0.26700002
-0.090941511 0.033534266 0.26500002
-0.090598337 0.039478302 0.264
-0.08991199 0.045203824 0.26200002
-0.089568809 0.051032886 0.26100001
-0.089225642 0.056815963 0.26000002
-0.088882454 0.062553048 0.259
-0.088196106 0.067979634 0.257
-0.087852933 0.073601753 0.25600001
-0.087509759 0.079177879 0.25500003
-0.086823411 0.084374517 0.25300002
-0.08648023 0.089835666 0.252
-0.086137056 0.09525083 0.25100002
-0.1248854 -0.14794165 0.39000002
-0.1248854 -0.13897374 0.39000002
-0.096385911 -0.09341646 0.30100003
-0.095105037 -0.085345633 0.29700002
-0.094464593 -0.077987492 0.29500002
-0.094144374 -0.070962705 0.294
-0.093503945 -0.063765541 0.29200003
-0.092863508 -0.056660339 0.29000002
-0.092223063 -0.049647126 0.28800002
-0.091902845 -0.042875279 0.287
-0.090942189 -0.035896629 0.28400001
-0.090621978 -0.029262753 0.28300002
-0.089981534 -0.022594456 0.28100002
-0.089341089 -0.016018137 0.27900001
-0.089020878 -0.0095682163 0.27800003
-0.088380441 -0.003152861 0.27600002
-0.088060215 0.0031820871 0.27500001
-0.087419778 0.0094364798 0.273
-0.086779349 0.015598895 0.27100003
-0.086138904 0.02166933 0.26900002
-0.085818686 0.027751334 0.26800001
-0.085178241 0.033660807 0.266
-0.08485803 0.039627846 0.26500002
-0.084217586 0.045376353 0.26300001
-0.084217586 0.051423945 0.26300001
-0.083897375 0.057253011 0.26200002
-0.08325693 0.062794566 0.26000002
-0.082616501 0.068244152 0.25800002
-0.082296275 0.073889256 0.257
-0.081655845 0.079177879 0.25500003
-0.081335619 0.084708013 0.25400001
-0.081015401 0.090192162 0.25300002
-0.080374964 0.09525083 0.25100002
-0.15130657 -0.20478709 0.509
-0.089773253 -0.093726806 0.30200002
-0.08888147 -0.085920349 0.29900002
-0.088286944 -0.078516223 0.29700002
-0.087692417 -0.071204074 0.29500002
-0.086800635 -0.063765541 0.29200003
-0.086800635 -0.057051104 0.29200003
-0.085908838 -0.04981951 0.289
-0.085314311 -0.042875279 0.287
-0.084719799 -0.036023024 0.28500003
-0.084125265 -0.029262753 0.28300002
-0.083828002 -0.022674862 0.28200001
-0.083233476 -0.01607555 0.28
-0.08293622 -0.0096026342 0.27900001
-0.082341693 -0.0031642844 0.27700001
-0.081747159 0.0031820871 0.27500001
-0.08115264 0.0094364798 0.273
-0.080855384 0.015656454 0.27200001
-0.08026085 0.021749886 0.27000001
-0.079963595 0.027854888 0.26900002
-0.079369068 0.033787355 0.26700002
-0.079071805 0.039777383 0.266
-0.078477278 0.045548886 0.264
-0.078477278 0.05161947 0.264
-0.078180015 0.057471532 0.26300001
-0.077288233 0.062794566 0.26000002
-0.076990969 0.068508662 0.259
-0.076693706 0.074176766 0.25800002
-0.076396435 0.079798877 0.257
-0.075801924 0.085041508 0.25500003
-0.075504653 0.090548649 0.25400001
-0.075207397 0.096009798 0.25300002
-0.082566075 -0.09341646 0.30100003
-0.08229176 -0.08620771 0.30000001
-0.081743151 -0.078780584 0.29800001
-0.081194535 -0.071445443 0.296
-0.080645919 -0.064202286 0.294
-0.080097318 -0.057051104 0.29200003
-0.079548702 -0.049991898 0.29000002
-0.079000093 -0.04302467 0.28800002
-0.078451477 -0.036149424 0.28600001
-0.077902868 -0.029366152 0.28400001
-0.07762856 -0.022755269 0.28300002
-0.077079952 -0.016132964 0.28100002
-0.076531336 -0.0096026342 0.27900001
-0.076257035 -0.003175708 0.27800003
-0.075708427 0.0031936583 0.27600002
-0.07515981 0.0094710458 0.27400002
-0.074885495 0.015714014 0.273
-0.074336894 0.021830441 0.27100003
-0.073788285 0.027854888 0.26900002
-0.07351397 0.033913899 0.26800001
-0.072965361 0.039777383 0.266
-0.072691053 0.045721423 0.26500002
-0.072416745 0.05161947 0.264
-0.072142445 0.057471532 0.26300001
-0.071593828 0.063036084 0.26100001
-0.071319528 0.06877318 0.26000002
-0.070770912 0.074176766 0.25800002
-0.070770912 0.08010938 0.25800002
-0.070496604 0.085708499 0.257
-0.069673687 0.090548649 0.25400001
-0.069399387 0.096009798 0.25300002
-0.075153448 -0.085920349 0.29900002
-0.075404793 -0.079309314 0.30000001
-0.074650757 -0.071686819 0.29700002
-0.074148051 -0.064420663 0.29500002
-0.073394008 -0.057051104 0.29200003
-0.07289131 -0.049991898 0.29000002
-0.07263995 -0.043174058 0.289
-0.072137251 -0.036275819 0.287
-0.071634561 -0.029469555 0.28500003
-0.071383208 -0.022835677 0.28400001
-0.071131863 -0.016247788 0.28300002
-0.070377812 -0.0096370522 0.28
-0.070126466 -0.0031871311 0.27900001
-0.069372416 0.0031936583 0.27600002
-0.069121063 0.0095056109 0.27500001
-0.068618365 0.015714014 0.273
-0.068367019 0.021910995 0.27200001
-0.068115674 0.028061986 0.27100003
-0.067612968 0.034040447 0.26900002
-0.067361616 0.040076461 0.26800001
-0.066858917 0.045893952 0.266
-0.066356219 0.05161947 0.264
-0.066104874 0.057471532 0.26300001
-0.065853521 0.06327761 0.26200002
-0.065602176 0.069037683 0.26100001
-0.06509947 0.074464269 0.259
-0.064596772 0.079798877 0.257
-0.064345427 0.085375004 0.25600001
-0.063842729 0.090548649 0.25400001
-0.063591383 0.096009798 0.25300002
-0.1167087 -0.20559175 0.51100004
-0.11648032 -0.19346216 0.51000005
-0.1167087 -0.18209124 0.51100004
-0.11693711 -0.17067432 0.51200002
-0.068746231 -0.086495072 0.30100003
-0.068746231 -0.079573683 0.30100003
-0.068517826 -0.072410926 0.30000001
-0.067604259 -0.064639039 0.296
-0.067147471 -0.05744186 0.294
-0.066462293 -0.050164282 0.29100001
-0.066005513 -0.043174058 0.289
-0.065777116 -0.036402218 0.28800002
-0.065320335 -0.029572956 0.28600001
-0.065091945 -0.022916086 0.28500003
-0.064863548 -0.016305201 0.28400001
-0.064635158 -0.009740307 0.28300002
-0.063949972 -0.0031985545 0.28
-0.063493192 0.003216801 0.27800003
-0.063036412 0.0095401779 0.27600002
-0.062579624 0.015771575 0.27400002
-0.062351227 0.021991549 0.273
-0.061894443 0.028061986 0.27100003
-0.061666049 0.034166988 0.27000001
-0.061437659 0.040226001 0.26900002
-0.060980871 0.046066489 0.26700002
-0.060524087 0.051814999 0.26500002
-0.060295686 0.05769005 0.264
-0.0600673 0.06351912 0.26300001
-0.059610516 0.069037683 0.26100001
-0.059382126 0.074751779 0.26000002
-0.058925338 0.08010938 0.25800002
-0.058696941 0.085708499 0.257
-0.058468554 0.091261633 0.25600001
-0.058011763 0.096389286 0.25400001
-0.10477248 -0.20518944 0.51000005
-0.10456704 -0.19308281 0.509
-0.10497791 -0.18209124 0.51100004
-0.10497791 -0.17034099 0.51100004
-0.062041741 -0.086782426 0.30200002
-0.062041741 -0.079838045 0.30200002
-0.061630871 -0.072410926 0.30000001
-0.061219994 -0.065075785 0.29800001
-0.060809124 -0.057832625 0.296
-0.059987381 -0.05033667 0.29200003
-0.059576504 -0.043323454 0.29000002
-0.059576504 -0.036655009 0.29000002
-0.059165634 -0.029779762 0.28800002
-0.058754757 -0.022996491 0.28600001
-0.058754757 -0.016420027 0.28600001
-0.058343887 -0.009774724 0.28400001
-0.057727579 -0.0032099779 0.28100002
-0.057316709 0.003228372 0.27900001
-0.056905832 0.0095747439 0.27700001
-0.056494962 0.015829137 0.27500001
-0.056289531 0.022072107 0.27400002
-0.055878654 0.028165538 0.27200001
-0.055673223 0.034293532 0.27100003
-0.055262346 0.040226001 0.26900002
-0.055056907 0.046239022 0.26800001
-0.054646038 0.052010525 0.266
-0.054440599 0.05790858 0.26500002
-0.05423516 0.063760631 0.264
-0.053824294 0.069302201 0.26200002
-0.053618856 0.075039282 0.26100001
-0.053207979 0.080419876 0.259
-0.053002547 0.086041994 0.25800002
-0.052797109 0.091618113 0.257
-0.052180801 0.096389286 0.25400001
-0.093064643 -0.20518944 0.51000005
-0.092882149 -0.19308281 0.509
-0.092882149 -0.18137854 0.509
-0.093064643 -0.17000765 0.51000005
-0.092882149 -0.15797 0.509
-0.055291336 -0.087069787 0.303
-0.055473827 -0.080366775 0.30400002
-0.054743905 -0.072410926 0.30000001
-0.054561421 -0.065294161 0.29900002
-0.054013982 -0.057832625 0.296
-0.053649027 -0.050681435 0.294
-0.053466544 -0.043771625 0.29300001
-0.053101588 -0.036781404 0.29100001
-0.052736621 -0.029883163 0.289
-0.052371666 -0.023076899 0.287
-0.052189186 -0.016420027 0.28600001
-0.05200671 -0.0098091429 0.28500003
-0.051276788 -0.0032099779 0.28100002
-0.050911829 0.003228372 0.27900001
-0.050729353 0.00960931 0.27800003
-0.05054687 0.015944257 0.27700001
-0.050364394 0.022233216 0.27600002
-0.049999431 0.028372636 0.27400002
-0.049816951 0.034546621 0.273
-0.049269512 0.040375542 0.27000001
-0.049087036 0.046411559 0.26900002
-0.048722073 0.052206058 0.26700002
-0.048539594 0.058127098 0.266
-0.048174631 0.063760631 0.264
-0.047992155 0.069566712 0.26300001
-0.047627196 0.075039282 0.26100001
-0.047444716 0.080730386 0.26000002
-0.047079757 0.086041994 0.25800002
-0.046897274 0.091618113 0.257
-0.046714798 0.097148255 0.25600001
-0.081516318 -0.20559175 0.51100004
-0.081356801 -0.19346216 0.51000005
-0.081197269 -0.18137854 0.509
-0.081356801 -0.17000765 0.51000005
-0.081197269 -0.15797 0.509
-0.048814077 -0.087931864 0.30600002
-0.048495032 -0.080366775 0.30400002
-0.048175987 -0.072893664 0.30200002
-0.048016462 -0.065730914 0.30100003
-0.047378369 -0.058028009 0.29700002
-0.047059324 -0.050853826 0.29500002
-0.046740275 -0.043771625 0.29300001
-0.04642123 -0.036781404 0.29100001
-0.046261709 -0.029986566 0.29000002
-0.04594266 -0.023157306 0.28800002
-0.045623615 -0.016420027 0.28600001
-0.045623615 -0.0098435599 0.28600001
-0.045145046 -0.0032328248 0.28300002
-0.044826001 0.0032515146 0.28100002
-0.044506952 0.0096438751 0.27900001
-0.044347432 0.016001819 0.27800003
-0.044187907 0.022313772 0.27700001
-0.043709338 0.028372636 0.27400002
-0.043390293 0.034420077 0.27200001
-0.043230772 0.040525079 0.27100003
-0.043071244 0.046584088 0.27000001
-0.042592674 0.052206058 0.26700002
-0.04243315 0.058127098 0.266
-0.042273629 0.064002156 0.26500002
-0.041954581 0.069566712 0.26300001
-0.041635536 0.075039282 0.26100001
-0.041635536 0.081040882 0.26100001
-0.041316491 0.08637549 0.259
-0.041156966 0.091974609 0.25800002
-0.040997442 0.097527735 0.257
-0.06951239 -0.20478709 0.509
-0.069648959 -0.19346216 0.51000005
-0.069648959 -0.1817349 0.51000005
-0.069648959 -0.17000765 0.51000005
-0.06951239 -0.15797 0.509
-0.041789375 -0.087931864 0.30600002
-0.041652806 -0.080631137 0.30500001
-0.041789375 -0.073859148 0.30600002
-0.041379672 -0.06616766 0.303
-0.040833406 -0.058418766 0.29900002
-0.040423706 -0.05102621 0.296
-0.040287141 -0.044070411 0.29500002
-0.040150572 -0.037160594 0.294
-0.039740875 -0.030089967 0.29100001
-0.039467741 -0.023237713 0.289
-0.039194606 -0.016477438 0.287
-0.039058041 -0.0098435599 0.28600001
-0.038784906 -0.003244248 0.28400001
-0.038511775 0.0032630856 0.28200001
-0.03837521 0.0097130071 0.28100002
-0.038102075 0.016059378 0.27900001
-0.037828941 0.022313772 0.27700001
-0.037555806 0.028476186 0.27500001
-0.037419241 0.034673166 0.27400002
-0.03714611 0.040674616 0.27200001
-0.037009545 0.046756625 0.27100003
-0.036599841 0.052401584 0.26800001
-0.036463279 0.058345627 0.26700002
-0.03632671 0.064243674 0.266
-0.03591701 0.069566712 0.26300001
-0.035780445 0.075326793 0.26200002
-0.035643876 0.081040882 0.26100001
-0.035370741 0.08637549 0.259
-0.035234179 0.091974609 0.25800002
-0.035234179 0.09790723 0.25800002
-0.057827499 -0.20478709 0.509
-0.057827499 -0.19308281 0.509
-0.058054723 -0.18209124 0.51100004
-0.058054723 -0.17034099 0.51100004
-0.057827499 -0.15797 0.509
-0.03487828 -0.088219225 0.30700001
-0.034651056 -0.080631137 0.30500001
-0.034651056 -0.073617779 0.30500001
-0.034310229 -0.065949284 0.30200002
-0.034083009 -0.058614142 0.30000001
-0.033628568 -0.05102621 0.296
-0.033742178 -0.044369191 0.29700002
-0.033628568 -0.037413388 0.296
-0.033174127 -0.03019337 0.29200003
-0.032946911 -0.023318121 0.29000002
-0.032606076 -0.016477438 0.287
-0.03249247 -0.0098435599 0.28600001
-0.03249247 -0.003267095 0.28600001
-0.032265246 0.0032862283 0.28400001
-0.032038029 0.0097475722 0.28200001
-0.031810805 0.016116938 0.28
-0.031583592 0.022394327 0.27800003
-0.031356368 0.028579736 0.27600002
-0.031242756 0.034799706 0.27500001
-0.031015538 0.040824153 0.273
-0.030788319 0.046756625 0.27100003
-0.030674707 0.052792642 0.27000001
-0.030333878 0.058345627 0.26700002
-0.030333878 0.064485192 0.26700002
-0.03010666 0.070095733 0.26500002
-0.029879438 0.075614296 0.26300001
-0.029879438 0.081661887 0.26300001
-0.029538609 0.086708993 0.26000002
-0.029311387 0.091974609 0.25800002
-0.029311387 0.09790723 0.25800002
-0.046051968 -0.20438474 0.50800002
-0.046051968 -0.19270347 0.50800002
-0.046142619 -0.18137854 0.509
-0.046323929 -0.17034099 0.51100004
-0.046323929 -0.15859073 0.51100004
-0.027921274 -0.088506587 0.30800003
-0.027739964 -0.080895506 0.30600002
-0.027739964 -0.073859148 0.30600002
-0.02755866 -0.066386037 0.30400002
-0.02737735 -0.059004907 0.30200002
-0.027105391 -0.05154337 0.29900002
-0.026742777 -0.044070411 0.29500002
-0.026742777 -0.037286993 0.29500002
-0.02665212 -0.03040017 0.294
-0.026470818 -0.023478936 0.29200003
-0.026198855 -0.016592262 0.289
-0.026108203 -0.0099123968 0.28800002
-0.025926895 -0.003267095 0.28600001
-0.025654934 0.0097821383 0.28300002
-0.025473628 0.016174499 0.28100002
-0.025201669 0.022394327 0.27800003
-0.025111014 0.028683284 0.27700001
-0.025020361 0.034926254 0.27600002
-0.024839053 0.040973697 0.27400002
-0.024657747 0.046929158 0.27200001
-0.024476439 0.052792642 0.27000001
-0.024476439 0.059001192 0.27000001
-0.024295131 0.06472671 0.26800001
-0.024113825 0.070360243 0.266
-0.023932518 0.075901806 0.264
-0.023751212 0.081351392 0.26200002
-0.023569906 0.086708993 0.26000002
-0.023569906 0.092687599 0.26000002
-0.023479249 0.098286711 0.259
-0.034322344 -0.20398243 0.50700003
-0.03439004 -0.19270347 0.50800002
-0.034457736 -0.18137854 0.509
-0.034525435 -0.17000765 0.51000005
-0.034593131 -0.15859073 0.51100004
-0.020782957 -0.088219225 0.30700001
-0.020782957 -0.081159867 0.30700001
-0.020782957 -0.074100517 0.30700001
-0.020715261 -0.06682279 0.30600002
-0.020579867 -0.059395671 0.30400002
-0.020309079 -0.051715754 0.30000001
-0.020173684 -0.044518583 0.29800001
-0.019970594 -0.037286993 0.29500002
-0.019970594 -0.030503573 0.29500002
-0.019970594 -0.023720158 0.29500002
-0.019699806 -0.016707089 0.29100001
-0.019564413 -0.0099468138 0.289
-0.019429019 -0.0032785183 0.287
-0.019293627 0.0032977995 0.28500003
-0.019225929 0.0098167034 0.28400001
-0.019090533 0.016232058 0.28200001
-0.018887443 0.022474881 0.27900001
-0.018819747 0.028786834 0.27800003
-0.01875205 0.035052799 0.27700001
-0.018616656 0.041123234 0.27500001
-0.018548958 0.047274224 0.27400002
-0.018413566 0.053183701 0.27200001
-0.01827817 0.059001192 0.27000001
-0.018142777 0.06472671 0.26800001
-0.018075081 0.070624761 0.26700002
-0.017939687 0.076189317 0.26500002
-0.017804293 0.081661887 0.26300001
-0.017736595 0.087375991 0.26200002
-0.017668897 0.09304408 0.26100001
-0.017601203 0.098666206 0.26000002
-0.022683373 -0.20398243 0.50700003
-0.022728113 -0.19270347 0.50800002
-0.022772852 -0.18137854 0.509
-0.022772852 -0.16967428 0.509
-0.022772852 -0.15797 0.509
-0.013735296 -0.088219225 0.30700001
-0.013735296 -0.081159867 0.30700001
-0.013780038 -0.074341893 0.30800003
-0.013690556 -0.06682279 0.30600002
-0.013601077 -0.059395671 0.30400002
-0.013511594 -0.05206053 0.30200002
-0.013422115 -0.044817362 0.30000001
-0.013287893 -0.037539784 0.29700002
-0.013243153 -0.030606978 0.296
-0.013153671 -0.02363975 0.294
-0.013019451 -0.016707089 0.29100001
-0.013019451 -0.010015651 0.29100001
-0.01288523 -0.0032899417 0.28800002
-0.012840488 0.0033209417 0.287
-0.012751009 0.0098512713 0.28500003
-0.012661528 0.01628962 0.28300002
-0.012572047 0.022635993 0.28100002
-0.012437826 0.028786834 0.27800003
-0.012348345 0.034926254 0.27600002
-0.012303605 0.041123234 0.27500001
-0.012214123 0.047101688 0.273
-0.012214123 0.053379223 0.273
-0.012079903 0.059001192 0.27000001
-0.012035163 0.064968228 0.26900002
-0.01181146 0.081972383 0.264
-0.011677239 0.087042488 0.26100001
-0.01172198 0.093400583 0.26200002
-0.011632499 0.098666206 0.26000002
-0.011109754 -0.20518944 0.51000005
-0.01108797 -0.19308281 0.509
-0.01108797 -0.18137854 0.509
-0.01108797 -0.16967428 0.509
-0.01108797 -0.15797 0.509
-0.0067094201 -0.088506587 0.30800003
-0.0067312038 -0.081688598 0.30900002
-0.0067529874 -0.074824616 0.31
-0.0066658529 -0.06682279 0.30600002
-0.0067094201 -0.060177196 0.30800003
-0.0066222847 -0.052405298 0.30400002
-0.0065569337 -0.044966761 0.30100003
-0.0064915814 -0.037666179 0.29800001
-0.0064480142 -0.030606978 0.296
-0.0064262305 -0.023720158 0.29500002
-0.0063608792 -0.016764503 0.29200003
-0.0063390946 -0.010015651 0.29100001
-0.0062955273 -0.0033013648 0.289
-0.0062737437 0.0033325129 0.28800002
-0.0062301755 0.0098858364 0.28600001
-0.0062083923 0.016404742 0.28500003
-0.0061648246 0.022797102 0.28300002
-0.0060994723 0.028993933 0.28
-0.0060559055 0.035179347 0.27800003
-0.0060123377 0.041272774 0.27600002
-0.0059905536 0.047446758 0.27500001
-0.0059469854 0.053379223 0.273
-0.0059034186 0.059219722 0.27100003
-0.0058380668 0.06472671 0.26800001
-0.0058380668 0.070889272 0.26800001
-0.0057509313 0.075901806 0.264
-0.0057291477 0.081661887 0.26300001
-0.0057291477 0.087709479 0.26300001
-0.0057073641 0.093400583 0.26200002
-0.00568558 0.099045679 0.26100001
0.00060043164 -0.20599408 0.51200002
0.00059456803 -0.19232415 0.50700003
0.00059691345 -0.18137854 0.509
0.00059808622 -0.17000765 0.51000005
0.00059691345 -0.15797 0.509
0.00059691345 -0.14626573 0.509
0.00036354258 -0.081952952 0.31
0.00036471532 -0.075065993 0.31100002
0.00036354258 -0.067696281 0.31
0.00036354258 -0.060567945 0.31
0.00035885171 -0.052750073 0.30600002
0.00035298814 -0.044966761 0.30100003
0.00035064269 -0.037792582 0.29900002
0.00034829724 -0.030710381 0.29700002
0.00034595182 -0.023720158 0.29500002
0.00034477908 -0.016879328 0.294
0.00034243366 -0.01005007 0.29200003
0.00034008824 -0.0033127887 0.29000002
0.00033774279 0.0033325129 0.28800002
0.00033657005 0.0099204015 0.287
0.00033422463 0.016404742 0.28500003
0.00033187922 0.022797102 0.28300002
0.00032953377 0.029097483 0.28100002
0.00032718832 0.035305887 0.27900001
0.00032601564 0.041571856 0.27800003
0.00032367019 0.047619294 0.27600002
0.00032132474 0.053574756 0.27400002
0.00031897929 0.059438236 0.27200001
0.00031663387 0.065209746 0.27000001
0.00031546116 0.07115379 0.26900002
0.00031194297 0.07647682 0.266
0.00031077027 0.082282893 0.26500002
0.00030959753 0.088042967 0.264
0.00030725214 0.093400583 0.26200002
0.0003060794 0.099045679 0.26100001
0.012257667 -0.20438474 0.50800002
0.01220941 -0.19194482 0.50600004
0.012281797 -0.18137854 0.509
0.012305927 -0.17000765 0.51000005
0.012281797 -0.15797 0.509
0.012281797 -0.14626573 0.509
0.0074800723 -0.081952952 0.31
0.0074800723 -0.074824616 0.31
0.0075283311 -0.068133034 0.31200001
0.0074076853 -0.059981812 0.30700001
0.0074076853 -0.052922457 0.30700001
0.007287039 -0.045116149 0.30200002
0.0072629098 -0.038045373 0.30100003
0.0071905218 -0.03081378 0.29800001
0.007142263 -0.023800563 0.296
0.0071181338 -0.016936742 0.29500002
0.0070698755 -0.010084487 0.29300001
0.0070216167 -0.0033242118 0.29100001
0.0069974875 0.0033556554 0.29000002
0.0069492287 0.0099549675 0.28800002
0.0069009704 0.016462302 0.28600001
0.0068527116 0.022877656 0.28400001
0.0068044532 0.029201034 0.28200001
0.0067561944 0.035432428 0.28
0.0067079365 0.041571856 0.27800003
0.0066596782 0.047619294 0.27600002
0.0066114194 0.053574756 0.27400002
0.0065872893 0.059656762 0.273
0.0065390319 0.065451264 0.27100003
0.0065149022 0.071418293 0.27000001
0.0064425147 0.07676433 0.26700002
0.0064183846 0.082593389 0.266
0.0063942559 0.08837647 0.26500002
0.0063701263 0.094113559 0.264
0.0063218684 0.099425174 0.26200002
0.02387251 -0.20398243 0.50700003
0.023919595 -0.19270347 0.50800002
0.023966681 -0.18137854 0.509
0.023966681 -0.16967428 0.509
0.023966681 -0.15797 0.509
0.023966681 -0.14626573 0.509
0.014596603 -0.081952952 0.31
0.014690774 -0.075307362 0.31200001
0.014690774 -0.068133034 0.31200001
0.014502433 -0.060177196 0.30800003
0.014502433 -0.053094849 0.30800003
0.014314088 -0.045414928 0.30400002
0.014219916 -0.038171768 0.30200002
0.014125746 -0.031020584 0.30000001
0.013984488 -0.023880973 0.29700002
0.013937401 -0.016994152 0.296
0.013890317 -0.010153323 0.29500002
0.013749059 -0.0033356354 0.29200003
0.013654888 0.0033556554 0.29000002
0.013607801 0.0099895336 0.289
0.013560715 0.016577423 0.28800002
0.013466544 0.023038767 0.28600001
0.013325286 0.029304584 0.28300002
0.013231114 0.03555898 0.28100002
0.013184028 0.041870929 0.28
0.013089857 0.047964364 0.27800003
0.012995686 0.053965814 0.27600002
0.012901514 0.059875283 0.27400002
0.012807342 0.065692782 0.27200001
0.012854427 0.072211832 0.273
0.012618999 0.083214395 0.26800001
0.012524827 0.088709965 0.266
0.012477742 0.094470054 0.26500002
0.01238357 0.099804655 0.26300001
0.035651565 -0.20478709 0.509
0.035721611 -0.19346216 0.51000005
0.03579165 -0.18209124 0.51100004
0.035721611 -0.17000765 0.51000005
0.035651565 -0.15797 0.509
0.035721611 -0.14655311 0.51000005
0.021923261 -0.082746051 0.31300002
0.021923261 -0.075548731 0.31300002
0.021853218 -0.068133034 0.31200001
0.021713132 -0.060567945 0.31
0.021643091 -0.053267233 0.30900002
0.021362921 -0.04556432 0.30500001
0.021152796 -0.038171768 0.30200002
0.02101271 -0.031020584 0.30000001
0.020872625 -0.023961378 0.29800001
0.020872625 -0.017108977 0.29800001
0.020662498 -0.010153323 0.29500002
0.020522412 -0.0033470588 0.29300001
0.020382328 0.0033672268 0.29100001
0.020312287 0.0100241 0.29000002
0.020172201 0.016577423 0.28800002
0.020032117 0.023038767 0.28600001
0.019892031 0.029408131 0.28400001
0.019751947 0.035685521 0.28200001
0.019611862 0.041870929 0.28
0.019541821 0.048136894 0.27900001
0.019401735 0.054161336 0.27700001
0.019331694 0.060312331 0.27600002
0.01919161 0.066175818 0.27400002
0.019051524 0.071947321 0.27200001
0.018981483 0.077914357 0.27100003
0.018841397 0.083524898 0.26900002
0.018701313 0.089043468 0.26700002
0.018631268 0.094826534 0.266
0.018491184 0.10018414 0.264
0.047615446 -0.20599408 0.51200002
0.047522448 -0.1938415 0.51100004
0.047522448 -0.18209124 0.51100004
0.047522448 -0.17034099 0.51100004
0.04742945 -0.15828037 0.51000005
0.04742945 -0.14655311 0.51000005
0.02929466 -0.083274782 0.31500003
0.029201658 -0.0757901 0.31400001
0.02929466 -0.068788163 0.31500003
0.029015662 -0.06095871 0.31200001
0.028736666 -0.053267233 0.30900002
0.028364668 -0.04556432 0.30500001
0.02827167 -0.038424559 0.30400002
0.028085673 -0.031227387 0.30200002
0.027899675 -0.024122193 0.30000001
0.027806677 -0.017166391 0.29900002
0.027527677 -0.01018774 0.296
0.027341681 -0.0033584819 0.294
0.027155682 0.003378798 0.29200003
0.026969686 0.0100241 0.29000002
0.026783688 0.016577423 0.28800002
0.026690686 0.023119321 0.287
0.026597692 0.029615233 0.28600001
0.026318695 0.035812065 0.28300002
0.026132697 0.04202047 0.28100002
0.025946697 0.048136894 0.27900001
0.025853701 0.054356873 0.27800003
0.025667701 0.060312331 0.27600002
0.025481703 0.066175818 0.27400002
0.025388703 0.072211832 0.273
0.025202706 0.077914357 0.27100003
0.025109706 0.083835401 0.27000001
0.02492371 0.089376956 0.26800001
0.02483071 0.09518303 0.26700002
0.024644714 0.10056363 0.26500002
0.059369195 -0.20599408 0.51200002
0.059485149 -0.19460016 0.51300001
0.059601106 -0.18316026 0.514
0.059485149 -0.17100768 0.51300001
0.059137292 -0.15828037 0.51000005
0.059137292 -0.14655311 0.51000005
0.036525972 -0.083274782 0.31500003
0.036525972 -0.076031476 0.31500003
0.036641926 -0.06900654 0.31600001
0.036178105 -0.06095871 0.31200001
0.03594619 -0.053439613 0.31
0.035598326 -0.045863103 0.30700001
0.035250463 -0.038424559 0.30400002
0.035018552 -0.031227387 0.30200002
0.034902595 -0.024202604 0.30100003
0.034786638 -0.017223803 0.30000001
0.034554727 -0.010256577 0.29800001
0.034322817 -0.0033813289 0.296
0.033974953 0.0033903692 0.29300001
0.033743039 0.010058665 0.29100001
0.033511128 0.016634984 0.289
0.033279214 0.023119321 0.287
0.033163264 0.029615233 0.28600001
0.03293135 0.035938606 0.28400001
0.03269944 0.042170007 0.28200001
0.032467529 0.048309427 0.28
0.032351576 0.054552395 0.27900001
0.032119665 0.060530853 0.27700001
0.031887751 0.066417329 0.27500001
0.031771798 0.072476342 0.27400002
0.031539887 0.078201868 0.27200001
0.031423934 0.084145904 0.27100003
0.031192021 0.089710459 0.26900002
0.031076062 0.095539518 0.26800001
0.030844152 0.1009431 0.266
0.071678601 -0.20760342 0.51600003
0.07181751 -0.19611752 0.51700002
0.071678601 -0.18387295 0.51600003
0.071400769 -0.17134102 0.514
0.071122952 -0.15890107 0.51200002
0.070984043 -0.14684047 0.51100004
0.043757286 -0.076031476 0.31500003
0.043896198 -0.06900654 0.31600001
0.043479461 -0.061154094 0.31300002
0.04306272 -0.053439613 0.31
0.042784903 -0.046012498 0.30800003
0.042507078 -0.038677357 0.30600002
0.042229254 -0.03143419 0.30400002
0.041812517 -0.024202604 0.30100003
0.041812517 -0.017281218 0.30100003
0.04139578 -0.010256577 0.29800001
0.041117955 -0.0033813289 0.296
0.04084013 0.0034019402 0.294
0.040423397 0.010058665 0.29100001
0.040284485 0.016692545 0.29000002
0.040006664 0.023199877 0.28800002
0.039728835 0.029615233 0.28600001
0.039728835 0.036191698 0.28600001
0.039451014 0.042469084 0.28400001
0.039034277 0.048481964 0.28100002
0.038756453 0.054552395 0.27900001
0.03861754 0.060749378 0.27800003
0.038339719 0.066658854 0.27600002
0.038200803 0.07274086 0.27500001
0.037922978 0.078489363 0.273
0.03778407 0.084456399 0.27200001
0.037506245 0.090043947 0.27000001
0.037367333 0.095896013 0.26900002
0.037089508 0.1013226 0.26700002
0.083362311 -0.20720109 0.51500005
0.083524175 -0.1957382 0.51600003
0.083362311 -0.18351661 0.51500005
0.08320044 -0.17134102 0.514
0.082714833 -0.15859073 0.51100004
0.082552969 -0.14655311 0.51000005
0.083038568 -0.13561893 0.51300001
0.051150467 -0.076272845 0.31600001
0.051312331 -0.069224909 0.317
0.050826728 -0.06134947 0.31400001
0.050502993 -0.053784382 0.31200001
0.050179251 -0.046311274 0.31
0.050017387 -0.039056543 0.30900002
0.049531784 -0.031640999 0.30600002
0.049046174 -0.024363415 0.303
0.048884306 -0.017338628 0.30200002
0.048236832 -0.010256577 0.29800001
0.047913093 -0.0033813289 0.296
0.047751226 0.0034135114 0.29500002
0.04742749 0.010127798 0.29300001
0.047103751 0.016750103 0.29100001
0.046941884 0.023360988 0.29000002
0.046456277 0.029718781 0.287
0.046456277 0.036318239 0.287
0.046132542 0.042618625 0.28500003
0.045808803 0.04882703 0.28300002
0.045485068 0.05494345 0.28100002
0.045161329 0.0609679 0.27900001
0.044999465 0.067141891 0.27800003
0.044675726 0.073005371 0.27600002
0.044351988 0.078776881 0.27400002
0.044190116 0.084766895 0.273
0.043866381 0.09037745 0.27100003
0.04370451 0.096252501 0.27000001
0.043380775 0.10170208 0.26800001
0.094815277 -0.20639642 0.51300001
0.094445638 -0.1938415 0.51100004
0.094445638 -0.18209124 0.51100004
0.095000103 -0.17134102 0.514
0.094630457 -0.15890107 0.51200002
0.094630457 -0.14712782 0.51200002
0.094815277 -0.13561893 0.51300001
0.058774386 -0.076755583 0.31800002
0.058589559 -0.069224909 0.317
0.05840474 -0.061740234 0.31600001
0.058035083 -0.054129157 0.31400001
0.057480615 -0.046460669 0.31100002
0.057110958 -0.039056543 0.30900002
0.056741308 -0.031744398 0.30700001
0.056371659 -0.024524231 0.30500001
0.055817183 -0.017338628 0.30200002
0.055262715 -0.010290995 0.29900002
0.055077881 -0.0034041759 0.29800001
0.054893058 0.0034366541 0.29700002
0.054338582 0.010162363 0.294
0.054153763 0.016865224 0.29300001
0.053784106 0.023441542 0.29100001
0.053229637 0.029822335 0.28800002
0.053044807 0.036318239 0.287
0.052859981 0.042768162 0.28600001
0.052490331 0.048999563 0.28400001
0.051935859 0.05494345 0.28100002
0.051751032 0.061186418 0.28
0.051566206 0.067383401 0.27900001
0.051196553 0.073269881 0.27700001
0.050826907 0.079064377 0.27500001
0.050457254 0.084766895 0.273
0.050272431 0.090710938 0.27200001
0.050087608 0.096608996 0.27100003
0.049717955 0.10208157 0.26900002
0.10576086 -0.20478709 0.509
0.10576086 -0.19308281 0.509
0.10596865 -0.1817349 0.51000005
0.10638421 -0.17067432 0.51200002
0.10700756 -0.15983215 0.51500005
0.10659199 -0.14741518 0.51300001
0.10659199 -0.13561893 0.51300001
0.065866783 -0.076514207 0.317
0.066074573 -0.069443293 0.31800002
0.065866783 -0.061935611 0.317
0.065659009 -0.054473929 0.31600001
0.064827874 -0.046610057 0.31200001
0.064204529 -0.039056543 0.30900002
0.063788973 -0.031744398 0.30700001
0.063373409 -0.024524231 0.30500001
0.062957838 -0.01739604 0.303
0.062542282 -0.010359831 0.30100003
0.062126718 -0.0034155995 0.29900002
0.061918933 0.0034482253 0.29800001
0.061503369 0.010231494 0.296
0.061087802 0.016922785 0.294
0.060464464 0.023441542 0.29100001
0.060256686 0.030029433 0.29000002
0.059841119 0.036444787 0.28800002
0.059425555 0.042768162 0.28600001
0.059009995 0.048999563 0.28400001
0.058594428 0.055138979 0.28200001
0.05838665 0.061404947 0.28100002
0.057971086 0.067383401 0.27900001
0.057763305 0.073534399 0.27800003
0.057347741 0.079351895 0.27600002
0.056932181 0.085077405 0.27400002
0.056724388 0.091044433 0.273
0.056308832 0.096608996 0.27100003
0.056308832 0.10284054 0.27100003
0.11767649 -0.20518944 0.51000005
0.11744574 -0.19308281 0.509
0.11744574 -0.18137854 0.509
0.11813796 -0.17067432 0.51200002
0.11883018 -0.15983215 0.51500005
0.11859943 -0.14770253 0.514
0.11929165 -0.13667639 0.51700002
0.073374748 -0.076755583 0.31800002
0.073374748 -0.069443293 0.31800002
0.073374748 -0.062130999 0.31800002
0.073144011 -0.054646313 0.317
0.072451793 -0.046908841 0.31400001
0.071759589 -0.039309338 0.31100002
0.071298108 -0.0319512 0.30900002
0.070605896 -0.024604637 0.30600002
0.070144415 -0.017453454 0.30400002
0.069682941 -0.01039425 0.30200002
0.069221459 -0.0034270226 0.30000001
0.068759985 0.0034482253 0.29800001
0.068529248 0.010266061 0.29700002
0.068067774 0.016980346 0.29500002
0.067375563 0.023522098 0.29200003
0.067144819 0.030132979 0.29100001
0.066683337 0.036571331 0.289
0.066221863 0.042917702 0.287
0.065760389 0.0491721 0.28500003
0.065298915 0.055334508 0.28300002
0.065068178 0.061623469 0.28200001
0.064837441 0.067866445 0.28100002
0.064375959 0.073798902 0.27900001
0.063914485 0.07963939 0.27700001
0.063453004 0.085387908 0.27500001
0.063222274 0.091377936 0.27400002
0.0627608 0.096965484 0.27200001
0.062530056 0.10284054 0.27100003
0.12887694 -0.20438474 0.50800002
0.12786216 -0.19118613 0.50400001
0.12786216 -0.17959683 0.50400001
0.12913063 -0.16967428 0.509
0.13090651 -0.1601425 0.51600003
0.1306528 -0.14798991 0.51500005
0.13141388 -0.13694075 0.51800001
0.080928624 -0.076996952 0.31900001
0.080928624 -0.069661662 0.31900001
0.080928624 -0.062326375 0.31900001
0.080674931 -0.054818705 0.31800002
0.079660155 -0.046908841 0.31400001
0.079152763 -0.039435729 0.31200001
0.078645371 -0.032054603 0.31
0.078137986 -0.024765454 0.30800003
0.077630602 -0.017568281 0.30600002
0.07686951 -0.010428667 0.303
0.076615818 -0.0034498696 0.30200002
0.076108426 0.0034713678 0.30000001
0.075601041 0.010300626 0.29800001
0.075093642 0.017037906 0.296
0.074586257 0.023683207 0.294
0.074078873 0.030236533 0.29200003
0.073571481 0.036697879 0.29000002
0.073064096 0.043067243 0.28800002
0.072810389 0.049517162 0.287
0.072303012 0.055725567 0.28500003
0.072049312 0.062060516 0.28400001
0.07154192 0.068107955 0.28200001
0.071034528 0.074063413 0.28
0.070527144 0.079926908 0.27800003
0.070019759 0.085698411 0.27600002
0.06976606 0.091711432 0.27500001
0.069258668 0.097321972 0.273
0.068751283 0.10284054 0.27100003
0.13915561 -0.2023731 0.50300002
0.13887896 -0.19042745 0.50200003
0.13860232 -0.17852782 0.50100005
0.14053886 -0.16934092 0.50800002
0.14247544 -0.15983215 0.51500005
0.14302874 -0.14856461 0.51700002
0.14330538 -0.13694075 0.51800001
0.14330538 -0.12502952 0.51800001
0.088805072 -0.070098415 0.32100001
0.088528425 -0.062521763 0.32000002
0.087975122 -0.054818705 0.31800002
0.087145165 -0.047058236 0.31500003
0.08686851 -0.039688528 0.31400001
0.086315207 -0.032261405 0.31200001
0.08548525 -0.024845859 0.30900002
0.084931955 -0.017625691 0.30700001
0.084101997 -0.010463085 0.30400002
0.083548702 -0.0034498696 0.30200002
0.082995392 0.0034713678 0.30000001
0.082718745 0.010335193 0.29900002
0.082165442 0.017095467 0.29700002
0.08161214 0.023763763 0.29500002
0.08105883 0.030340081 0.29300001
0.08022888 0.036697879 0.29000002
0.079675578 0.043067243 0.28800002
0.079398923 0.049517162 0.287
0.079122275 0.055921096 0.28600001
0.078568973 0.062060516 0.28400001
0.07801567 0.068107955 0.28200001
0.077739023 0.074327931 0.28100002
0.077185713 0.080214411 0.27900001
0.076632418 0.086008906 0.27700001
0.076079108 0.091711432 0.27500001
0.07580246 0.097678468 0.27400002
0.075249158 0.10322002 0.27200001
0.14980392 -0.20116609 0.5
0.15040314 -0.19042745 0.50200003
0.14980392 -0.17817146 0.5
0.15190119 -0.16900758 0.50700003
0.15459765 -0.1601425 0.51600003
0.15459765 -0.14827725 0.51600003
0.15519686 -0.13694075 0.51800001
0.15549648 -0.1252709 0.51900005
0.096773341 -0.070535161 0.32300001
0.096174121 -0.062717132 0.32100001
0.095275305 -0.054818705 0.31800002
0.094676085 -0.047207624 0.31600001
0.094376482 -0.039814927 0.31500003
0.093477651 -0.032261405 0.31200001
0.092878431 -0.024926268 0.31
0.092279226 -0.017683106 0.30800003
0.091380395 -0.010497503 0.30500001
0.091080792 -0.0034727165 0.30400002
0.090181969 0.0034829392 0.30100003
0.089882359 0.010369758 0.30000001
0.088983536 0.017095467 0.29700002
0.088683926 0.023844318 0.296
0.088084705 0.030443627 0.294
0.087185889 0.03682442 0.29100001
0.086886287 0.04336632 0.29000002
0.086287066 0.049689699 0.28800002
0.085987449 0.056116618 0.287
0.085388243 0.062279038 0.28500003
0.08478903 0.068349481 0.28300002
0.084489413 0.074592441 0.28200001
0.0838902 0.080501914 0.28
0.083290994 0.086319417 0.27800003
0.082691774 0.092044927 0.27600002
0.082392156 0.098034948 0.27500001
0.081792943 0.1035995 0.273
0.16612068 -0.20720109 0.51500005
0.16676579 -0.19611752 0.51700002
0.16612068 -0.18351661 0.51500005
0.16612068 -0.17167439 0.51500005
0.16644323 -0.1601425 0.51600003
0.16676579 -0.14856461 0.51700002
0.16708836 -0.13694075 0.51800001
0.16708836 -0.12502952 0.51800001
0.10451087 -0.070753537 0.324
0.10386574 -0.062912516 0.32200003
0.10354317 -0.055335857 0.32100001
0.10257548 -0.047506407 0.31800002
0.10160779 -0.039814927 0.31500003
0.10096267 -0.032364812 0.31300002
0.10031753 -0.025006674 0.31100002
0.099349841 -0.017683106 0.30800003
0.098704718 -0.010531922 0.30600002
0.098382145 -0.0034841397 0.30500001
0.097737007 0.0035060812 0.303
0.097091891 0.010404324 0.30100003
0.09644676 0.01721059 0.29900002
0.095801629 0.023924874 0.29700002
0.095479064 0.030650729 0.296
0.094511375 0.037077509 0.29300001
0.093866237 0.043515857 0.29100001
0.093221113 0.049862228 0.289
0.092898555 0.056312151 0.28800002
0.092253424 0.062497564 0.28600001
0.091608286 0.068590991 0.28400001
0.090963162 0.074592441 0.28200001
0.090640604 0.080789424 0.28100002
0.089672908 0.086319417 0.27800003
0.089350343 0.092378423 0.27700001
0.088705212 0.098034948 0.27500001
0.088382654 0.103979 0.27400002
0.17863433 -0.20800574 0.51700002
0.17828882 -0.1957382 0.51600003
0.17828882 -0.18387295 0.51600003
0.17828882 -0.17200772 0.51600003
0.17932539 -0.16107357 0.51900005
0.17897986 -0.14885198 0.51800001
0.17897986 -0.13694075 0.51800001
0.17932539 -0.1252709 0.51900005
0.11194879 -0.070753537 0.324
0.11160327 -0.063107893 0.32300001
0.11125775 -0.055508245 0.32200003
0.10987566 -0.047506407 0.31800002
0.10918462 -0.039941318 0.31600001
0.10849357 -0.032468211 0.31400001
0.10745702 -0.025006674 0.31100002
0.1071115 -0.01779793 0.31
0.10642046 -0.010600758 0.30800003
0.10572942 -0.0034955635 0.30600002
0.10503837 0.0035176526 0.30400002
0.10469285 0.010473455 0.303
0.10365629 0.017268149 0.30000001
0.10261973 0.023924874 0.29700002
0.1022742 0.030650729 0.296
0.10192868 0.037330598 0.29500002
0.10089213 0.043665402 0.29200003
0.10020108 0.050034765 0.29000002
0.09985555 0.056507673 0.289
0.099164516 0.062716082 0.287
0.098473482 0.068832509 0.28500003
0.097782433 0.074856952 0.28300002
0.097091392 0.080789424 0.28100002
0.09640035 0.086629912 0.27900001
0.096054837 0.092711926 0.27800003
0.095363788 0.098391443 0.27600002
0.09501826 0.10435848 0.27500001
0.19087134 -0.20840807 0.51800001
0.19087134 -0.19649684 0.51800001
0.19050287 -0.1842293 0.51700002
0.19087134 -0.1726744 0.51800001
0.19123983 -0.16107357 0.51900005
0.19087134 -0.14885198 0.51800001
0.19087134 -0.13694075 0.51800001
0.19123983 -0.1252709 0.51900005
0.11975519 -0.070971914 0.32500002
0.1193867 -0.063303277 0.324
0.11901823 -0.055680629 0.32300001
0.1179128 -0.04780519 0.32000002
0.11717585 -0.040194113 0.31800002
0.11607042 -0.032571614 0.31500003
0.11533346 -0.025167489 0.31300002
0.11459652 -0.017855342 0.31100002
0.11385956 -0.010635176 0.30900002
0.1131226 -0.0035069867 0.30700001
0.11238564 0.0035292238 0.30500001
0.11164868 0.010473455 0.303
0.11091173 0.017325711 0.30100003
0.11017478 0.024085984 0.29900002
0.10943782 0.030754279 0.29700002
0.10870087 0.037330598 0.29500002
0.10833238 0.043964472 0.294
0.10722695 0.050207298 0.29100001
0.10685848 0.05670321 0.29000002
0.10612152 0.062934607 0.28800002
0.10538457 0.069074027 0.28600001
0.10464761 0.07512147 0.28400001
0.10427914 0.081364438 0.28300002
0.10354218 0.087250918 0.28100002
0.10280523 0.093045421 0.27900001
0.10206827 0.098747939 0.27700001
0.10169979 0.10473797 0.27600002
0.20315428 -0.20881042 0.51900005
0.20315428 -0.19687621 0.51900005
0.20315428 -0.18494199 0.51900005
0.20315428 -0.17300777 0.51900005
0.20393714 -0.16169426 0.52100003
0.20354572 -0.1494267 0.52000004
0.20276284 -0.13694075 0.51800001
0.20276284 -0.12502952 0.51800001
0.20276284 -0.11311831 0.51800001
0.12721607 -0.063498661 0.32500002
0.12682463 -0.055853013 0.324
0.12604177 -0.048103973 0.32200003
0.12486747 -0.040320512 0.31900001
0.12369316 -0.032675017 0.31600001
0.12330174 -0.025328305 0.31500003
0.12212743 -0.017912755 0.31200001
0.12134456 -0.010669594 0.31
0.12095312 -0.0035298336 0.30900002
0.11977883 0.0035407951 0.30600002
0.11860452 0.010473455 0.303
0.11821309 0.017383268 0.30200002
0.11743022 0.024166539 0.30000001
0.11664734 0.030857831 0.29800001
0.11586447 0.037457138 0.296
0.11508162 0.043964472 0.294
0.11469018 0.050552364 0.29300001
0.11390731 0.056898732 0.29100001
0.11273301 0.062934607 0.28800002
0.11234157 0.069315545 0.287
0.11155871 0.07538598 0.28500003
0.11116727 0.081651941 0.28400001
0.1103844 0.087561414 0.28200001
0.10960153 0.093378909 0.28
0.1092101 0.099460915 0.27900001
0.10842723 0.10511745 0.27700001
0.2158975 -0.20961507 0.52100003
0.21506874 -0.19687621 0.51900005
0.21548313 -0.18529834 0.52000004
0.21548313 -0.17334111 0.52000004
0.2158975 -0.16169426 0.52100003
0.21465433 -0.14885198 0.51800001
0.21506874 -0.13720512 0.51900005
0.21506874 -0.1252709 0.51900005
0.21631189 -0.11399181 0.52200001
0.13467695 -0.063498661 0.32500002
0.13467695 -0.056025404 0.32500002
0.13426255 -0.048402753 0.324
0.132605 -0.040446907 0.32000002
0.13136181 -0.032778416 0.317
0.13053304 -0.025328305 0.31500003
0.13011865 -0.018027581 0.31400001
0.12928987 -0.010738429 0.31200001
0.12846108 -0.0035412568 0.31
0.12763231 0.0035639377 0.30800003
0.12638913 0.010542587 0.30500001
0.12556034 0.017440829 0.303
0.12473158 0.024247095 0.30100003
0.1239028 0.030961381 0.29900002
0.1234884 0.037710231 0.29800001
0.12224523 0.044114016 0.29500002
0.12183084 0.050724898 0.294
0.12058767 0.056898732 0.29100001
0.12017328 0.063371658 0.29000002
0.1193445 0.069557063 0.28800002
0.11851571 0.075650491 0.28600001
0.11768693 0.081651941 0.28400001
0.11727255 0.087871917 0.28300002
0.11644376 0.093712412 0.28100002
0.11561498 0.099460915 0.27900001
0.1152006 0.10549694 0.27800003
0.22785787 -0.20961507 0.52100003
0.22698317 -0.19687621 0.51900005
0.22698317 -0.18494199 0.51900005
0.22742054 -0.17334111 0.52000004
0.22785787 -0.16169426 0.52100003
0.22698317 -0.14913934 0.51900005
0.22698317 -0.13720512 0.51900005
0.22698317 -0.1252709 0.51900005
0.22698317 -0.1133367 0.51900005
0.14257517 -0.063694037 0.32600001
0.14257517 -0.056197789 0.32600001
0.14213784 -0.048552144 0.32500002
0.14038844 -0.040573303 0.32100001
0.1390764 -0.032881819 0.31800002
0.13776436 -0.025328305 0.31500003
0.13776436 -0.018084994 0.31500003
0.13688967 -0.010772848 0.31300002
0.13601497 -0.0035526801 0.31100002
0.13514027 0.0035755085 0.30900002
0.13382824 0.010577153 0.30600002
0.13295354 0.017498391 0.30400002
0.13207884 0.024327649 0.30200002
0.13120414 0.031064928 0.30000001
0.13076681 0.037836779 0.29900002
0.12989211 0.044413093 0.29700002
0.12901741 0.050897431 0.29500002
0.12814271 0.05728979 0.29300001
0.12726802 0.063590176 0.29100001
0.12639332 0.069798581 0.289
0.12551863 0.075915001 0.287
0.12464394 0.081939451 0.28500003
0.1242066 0.08818242 0.28400001
0.12376925 0.094379403 0.28300002
