ply
format ascii 1.0
comment PCL generated
element vertex 1481
property float x
property float y
property float z
element face 0
element camera 0
property float view_px
property float view_py
property float view_pz
property float x_axisx
property float x_axisy
property float x_axisz
property float y_axisx
property float y_axisy
property float y_axisz
property float z_axisx
property float z_axisy
property float z_axisz
property float focal
property float scalex
property float scaley
property float centerx
property float centery
property int viewportx
property int viewporty
property float k1
property float k2
end_header
-0.55289549 -0.24094395 2.484
-0.53356582 -0.23425105 2.415
-0.51906824 -0.22959515 2.3670001
-0.5116933 -0.22804315 2.3510001
-0.50631505 -0.22736417 2.3440001
-0.5024603 -0.22736417 2.3440001
-0.49945644 -0.22775216 2.348
-0.51790005 -0.25811267 2.661
-0.513524 -0.25811267 2.661
-0.50953072 -0.25830665 2.6630001
-0.50534105 -0.25840366 2.664
-0.50171226 -0.25879163 2.668
-0.49788395 -0.25908265 2.671
-0.41752997 -0.2610226 2.691
-0.41295108 -0.26092562 2.6900001
-0.40822363 -0.26073161 2.688
-0.40320233 -0.26034361 2.684
-0.25418103 -0.24045895 2.4790001
-0.24828827 -0.23871298 2.461
-0.24334794 -0.23783998 2.4519999
-0.23921801 -0.23774299 2.451
-0.23576306 -0.23832498 2.457
-0.23247698 -0.23910096 2.4649999
-0.22990595 -0.24065295 2.4809999
-0.2265541 -0.24142894 2.4890001
-0.22308658 -0.24210793 2.4960001
-0.17110679 -0.20874047 2.152
-0.16702273 -0.2080615 2.145
-0.16303794 -0.20747951 2.1389999
-0.15869999 -0.20641252 2.128
-0.15454409 -0.20553954 2.119
-0.15041777 -0.20466654 2.1099999
-0.59819311 -0.24187356 2.4519999
-0.59464544 -0.24207085 2.454
-0.58964717 -0.2416763 2.45
-0.58370584 -0.24088715 2.4419999
-0.57731616 -0.23990071 2.4319999
-0.5714308 -0.23911156 2.424
-0.56627405 -0.23861834 2.4189999
-0.56345826 -0.23911156 2.424
-0.56247246 -0.24039394 2.437
-0.56304801 -0.24236679 2.457
-0.56515038 -0.24503016 2.484
-0.56626046 -0.24729896 2.507
-0.56348306 -0.24789082 2.513
-0.5537858 -0.24542472 2.4879999
-0.53422862 -0.2385197 2.418
-0.51841038 -0.23319297 2.3640001
-0.51082265 -0.231516 2.3469999
-0.50566697 -0.23092417 2.3410001
-0.50203156 -0.23102282 2.342
-0.49839282 -0.23112144 2.3429999
-0.49601725 -0.23181194 2.3499999
-0.51595378 -0.26150364 2.651
-0.51178718 -0.26160225 2.652
-0.50780863 -0.26179954 2.654
-0.50401318 -0.26209548 2.6570001
-0.5002079 -0.26239142 2.6600001
-0.41325811 -0.26554799 2.6919999
-0.25888282 -0.24512881 2.4849999
-0.2514126 -0.24187356 2.4519999
-0.24687582 -0.24138035 2.447
-0.24275248 -0.24128173 2.4460001
-0.23912042 -0.2416763 2.45
-0.23585901 -0.24246542 2.4579999
-0.2325713 -0.24325459 2.4660001
-0.23009129 -0.24493152 2.483
-0.22673613 -0.24572065 2.4909999
-0.22290781 -0.24601661 2.494
-0.17078874 -0.21188599 2.148
-0.16671129 -0.21119548 2.141
-0.16280927 -0.21070226 2.1359999
-0.15855084 -0.20971583 2.1259999
-0.15447116 -0.20892669 2.118
-0.15041777 -0.20813753 2.1099999
-0.59770525 -0.24570657 2.45
-0.5939185 -0.24580686 2.451
-0.58964717 -0.24570657 2.45
-0.58418393 -0.24510486 2.444
-0.57755357 -0.2440017 2.4330001
-0.57190233 -0.24329968 2.4260001
-0.56674224 -0.24279821 2.421
-0.56322581 -0.24299881 2.4230001
-0.56154925 -0.2440017 2.4330001
-0.56098557 -0.245506 2.448
-0.56219262 -0.24781263 2.471
-0.56354994 -0.25021955 2.4949999
-0.5623619 -0.25152332 2.5079999
-0.55489874 -0.25001898 2.493
-0.53621703 -0.24339995 2.427
-0.5188489 -0.23728235 2.3659999
-0.51060504 -0.23527658 2.346
-0.50501901 -0.23447427 2.3380001
-0.50117415 -0.23447427 2.3380001
-0.49754196 -0.23457457 2.339
-0.49411765 -0.23477516 2.3410001
-0.49236214 -0.23577805 2.3510001
-0.5130344 -0.26436022 2.6359999
-0.50947142 -0.26476139 2.6400001
-0.50608659 -0.26526281 2.645
-0.50230598 -0.26556367 2.648
-0.49813935 -0.26566395 2.6489999
-0.25596583 -0.2464086 2.457
-0.25059235 -0.24510486 2.444
-0.24627049 -0.24480398 2.441
-0.24245475 -0.24500458 2.4430001
-0.23902281 -0.24560627 2.4489999
-0.23585901 -0.24650888 2.4579999
-0.23275992 -0.24751176 2.4679999
-0.2302766 -0.24921668 2.4849999
-0.22710022 -0.25021955 2.4949999
-0.1738342 -0.21481776 2.142
-0.16999364 -0.21441659 2.138
-0.16616622 -0.21401545 2.1340001
-0.16235195 -0.21361428 2.1300001
-0.15810336 -0.21261141 2.1199999
-0.15410648 -0.21190938 2.1129999
-0.15013263 -0.21120736 2.1059999
-0.59697342 -0.24943109 2.447
-0.59367621 -0.24973686 2.45
-0.58916581 -0.249533 2.448
-0.58466202 -0.24932915 2.4460001
-0.57802832 -0.24820787 2.4349999
-0.57190233 -0.24729048 2.4260001
-0.56674224 -0.2467808 2.421
-0.56299335 -0.24688274 2.4219999
-0.56085682 -0.24769822 2.4300001
-0.55938137 -0.24881947 2.441
-0.55900747 -0.2504504 2.457
-0.56016195 -0.25279486 2.48
-0.55967122 -0.25442579 2.4960001
-0.55445355 -0.25391611 2.4909999
-0.53798455 -0.24820787 2.4349999
-0.51950681 -0.24148026 2.369
-0.51060504 -0.2391358 2.346
-0.50480294 -0.23821838 2.3369999
-0.50053108 -0.23801453 2.335
-0.49690384 -0.23811644 2.336
-0.49327332 -0.23821838 2.3369999
-0.49005839 -0.23852418 2.3399999
-0.48828804 -0.23954351 2.3499999
-0.51030964 -0.2672694 2.622
-0.5071556 -0.26788104 2.628
-0.50436455 -0.26869649 2.6359999
-0.50059873 -0.26900229 2.6389999
-0.49644697 -0.26910421 2.6400001
-0.28720701 -0.2394416 2.349
-0.28430906 -0.24025708 2.3570001
-0.25979471 -0.25024655 2.4549999
-0.2541948 -0.24871755 2.4400001
-0.24956699 -0.24810593 2.434
-0.24576604 -0.24830982 2.4360001
-0.24225624 -0.24881947 2.441
-0.2388276 -0.24943109 2.447
-0.23576306 -0.2504504 2.457
-0.23275992 -0.25157169 2.4679999
-0.22962794 -0.25259098 2.4779999
-0.22637205 -0.25350842 2.487
-0.17399652 -0.21854526 2.1440001
-0.17007314 -0.21803558 2.1389999
-0.16608834 -0.21742396 2.1329999
-0.1621995 -0.21691431 2.128
-0.15787967 -0.21579306 2.1170001
-0.15388769 -0.21507952 2.1099999
-0.14999005 -0.21446793 2.1040001
-0.59697342 -0.25345641 2.447
-0.59343386 -0.25366357 2.4489999
-0.58940643 -0.25366357 2.4489999
-0.58466202 -0.25335285 2.4460001
-0.57802832 -0.25221348 2.4349999
-0.57190233 -0.25128129 2.4260001
-0.56674224 -0.25076339 2.421
-0.56206352 -0.25045264 2.418
-0.5599336 -0.25128129 2.4260001
-0.55777729 -0.25210992 2.434
-0.55695981 -0.25356001 2.448
-0.55699974 -0.25542441 2.4660001
-0.55698049 -0.25728881 2.484
-0.53886831 -0.25262779 2.4389999
-0.52038395 -0.24579163 2.3729999
-0.51038736 -0.24289143 2.345
-0.50458699 -0.2419592 2.336
-0.50031674 -0.24175207 2.3340001
-0.49647841 -0.24175207 2.3340001
-0.4928512 -0.24185564 2.335
-0.4894301 -0.24206279 2.3369999
-0.48621023 -0.24237353 2.3399999
-0.50561172 -0.27137548 2.6199999
-0.50302517 -0.27230769 2.6289999
-0.49908119 -0.27251485 2.631
-0.49513057 -0.27272201 2.6329999
-0.41665575 -0.23999122 2.3169999
-0.41248912 -0.23978408 2.3150001
-0.40903509 -0.23999122 2.3169999
-0.29342622 -0.24206279 2.3369999
-0.28983083 -0.24226996 2.339
-0.2868402 -0.24299499 2.346
-0.28418842 -0.24403079 2.3559999
-0.27376133 -0.25987831 2.5090001
-0.26608881 -0.25646022 2.4760001
-0.25894815 -0.25345641 2.447
-0.25356972 -0.25210992 2.434
-0.24936193 -0.25190276 2.4319999
-0.24576604 -0.25231707 2.4360001
-0.24235548 -0.25293851 2.4419999
-0.23912042 -0.25376719 2.45
-0.23605092 -0.25480294 2.46
-0.23294856 -0.25583872 2.47
-0.22972061 -0.25677094 2.4790001
-0.16991413 -0.22134712 2.1370001
-0.16577688 -0.22051848 2.1289999
-0.16174218 -0.21979342 2.122
-0.15735759 -0.21855047 2.1099999
-0.1534501 -0.21792902 2.1040001
-0.14963362 -0.21741115 2.099
-0.59648544 -0.25727132 2.4449999
-0.59294927 -0.25748178 2.447
-0.5886845 -0.25737658 2.4460001
-0.58442301 -0.25727132 2.4449999
-0.57755357 -0.25600865 2.4330001
-0.57166654 -0.25516686 2.425
-0.56650817 -0.25464076 2.4200001
-0.56206352 -0.25443029 2.418
-0.55947196 -0.25506163 2.424
-0.55686069 -0.25569299 2.4300001
-0.5560497 -0.25716612 2.444
-0.52345413 -0.25116837 2.3870001
-0.51104033 -0.24706466 2.348
-0.50437099 -0.24569677 2.335
-0.50031674 -0.24559154 2.3340001
-0.49626568 -0.24548629 2.3329999
-0.49264017 -0.24559154 2.3340001
-0.48901129 -0.24569677 2.335
-0.50599772 -0.27589589 2.622
-0.5028339 -0.27652723 2.628
-0.4170154 -0.24401319 2.319
-0.41248912 -0.24359231 2.3150001
-0.40850547 -0.24348705 2.3139999
-0.4047001 -0.24348705 2.3139999
-0.40054822 -0.24327663 2.312
-0.29752386 -0.24611765 2.339
-0.29342622 -0.24590719 2.3369999
-0.28983083 -0.24611765 2.339
-0.28671795 -0.246749 2.345
-0.28418842 -0.24790646 2.3559999
-0.27201551 -0.26232207 2.493
-0.26490667 -0.25937578 2.4649999
-0.25852489 -0.25706092 2.4430001
-0.25367388 -0.25621909 2.4349999
-0.24956699 -0.25611389 2.434
-0.2460687 -0.25663999 2.4389999
-0.24275248 -0.25737658 2.4460001
-0.23951082 -0.25821835 2.454
-0.23624283 -0.25906011 2.4619999
-0.23294856 -0.25990194 2.47
-0.22972061 -0.26084894 2.4790001
-0.1697551 -0.22465207 2.135
-0.16554329 -0.22370505 2.1259999
-0.16151351 -0.22296849 2.119
-0.1570593 -0.22160059 2.1059999
-0.15315837 -0.22096923 2.0999999
-0.14934847 -0.22044313 2.095
-0.59526563 -0.26075909 2.4400001
-0.59197998 -0.26107967 2.4430001
-0.58820313 -0.26118654 2.444
-0.58418393 -0.26118654 2.444
-0.57897782 -0.26065218 2.4389999
-0.57237381 -0.25947663 2.428
-0.56674224 -0.25872856 2.421
-0.56183112 -0.25830108 2.4170001
-0.55901033 -0.25883541 2.4219999
-0.55686069 -0.25969037 2.4300001
-0.55513966 -0.26075909 2.4400001
-0.55474102 -0.26246896 2.4560001
-0.51256388 -0.25167525 2.355
-0.50501901 -0.24985848 2.3380001
-0.50053108 -0.24953787 2.335
-0.49647841 -0.24943101 2.3340001
-0.49264017 -0.24943101 2.3340001
-0.48901129 -0.24953787 2.335
-0.50522584 -0.27978164 2.618
-0.41647592 -0.24750738 2.316
-0.41213271 -0.24718677 2.313
-0.40832898 -0.24718677 2.313
-0.40400055 -0.24686615 2.3099999
-0.3993355 -0.24633183 2.3050001
-0.39588809 -0.24654555 2.3069999
-0.29739666 -0.24985848 2.3380001
-0.29342622 -0.2497516 2.3369999
-0.28983083 -0.24996534 2.339
-0.28696248 -0.25082028 2.3469999
-0.28442967 -0.25199586 2.358
-0.26361707 -0.26214838 2.4530001
-0.25820741 -0.26075909 2.4400001
-0.25388226 -0.26043847 2.437
-0.24977207 -0.2603316 2.4360001
-0.24627049 -0.26086593 2.441
-0.24305019 -0.26172087 2.4489999
-0.2399012 -0.26268268 2.4579999
-0.23643474 -0.2633239 2.464
-0.2325713 -0.26353765 2.4660001
-0.22934994 -0.26449946 2.4749999
-0.17415883 -0.22933972 2.1459999
-0.16967559 -0.22805731 2.1340001
-0.16523181 -0.22677489 2.122
-0.16128485 -0.22613367 2.1159999
-0.15683556 -0.22474438 2.1029999
-0.15301251 -0.22421007 2.098
-0.14920588 -0.22367568 2.0929999
-0.59453374 -0.26444736 2.437
-0.59149534 -0.2648814 2.441
-0.58772177 -0.26498991 2.4419999
-0.58394498 -0.26509845 2.4430001
-0.57850307 -0.26444736 2.437
-0.57331675 -0.26390478 2.4319999
-0.56721044 -0.26292819 2.4230001
-0.56206352 -0.26238561 2.418
-0.55877954 -0.26271117 2.421
-0.55617315 -0.26336223 2.427
-0.55468458 -0.26455587 2.438
-0.55406338 -0.26618358 2.4530001
-0.55451393 -0.26835385 2.473
-0.51365209 -0.2560918 2.3599999
-0.50545102 -0.25392154 2.3399999
-0.50117415 -0.25370452 2.3380001
-0.49669111 -0.25337899 2.335
-0.4928512 -0.25337899 2.335
-0.48901129 -0.25337899 2.335
-0.41737509 -0.25185981 2.3210001
-0.41266727 -0.25131723 2.316
-0.40832898 -0.2509917 2.313
-0.40382564 -0.25055763 2.309
-0.39950874 -0.25023207 2.306
-0.39537328 -0.25001505 2.3039999
-0.3914144 -0.24990655 2.303
-0.30252996 -0.25478968 2.348
-0.29739666 -0.25370452 2.3380001
-0.29392847 -0.25403008 2.3410001
-0.29032648 -0.25424707 2.3429999
-0.28806287 -0.25565776 2.3559999
-0.26841483 -0.26694319 2.46
-0.26264986 -0.26520696 2.444
-0.25810155 -0.26466438 2.4389999
-0.25429896 -0.2648814 2.441
-0.25028473 -0.2648814 2.441
-0.24677494 -0.26542398 2.4460001
-0.24354643 -0.2662921 2.454
-0.24019401 -0.2670517 2.461
-0.23662665 -0.26759428 2.4660001
-0.23247698 -0.26748574 2.4649999
-0.17391536 -0.23254439 2.1429999
-0.16927804 -0.2310252 2.1289999
-0.16507609 -0.23004857 2.1199999
-0.16105618 -0.229289 2.1129999
-0.15661183 -0.22787832 2.0999999
-0.15279371 -0.22733577 2.095
-0.14899202 -0.22679318 2.0899999
-0.59125304 -0.26878673 2.4400001
-0.58772177 -0.26900706 2.4419999
-0.58370584 -0.26900706 2.4419999
-0.57850307 -0.26845625 2.437
-0.57308102 -0.26779529 2.431
-0.56767857 -0.26713437 2.425
-0.56276089 -0.26669371 2.421
-0.55901033 -0.26680389 2.4219999
-0.55571479 -0.26713437 2.425
-0.55422962 -0.26834613 2.4360001
-0.55383748 -0.27010864 2.4519999
-0.5542897 -0.27231181 2.4719999
-0.55178261 -0.27308291 2.4790001
-0.51495802 -0.26063499 2.3659999
-0.50609899 -0.25810137 2.3429999
-0.50181723 -0.25788105 2.3410001
-0.49732929 -0.25755057 2.3380001
-0.49327332 -0.25744042 2.3369999
-0.48922068 -0.25733027 2.336
-0.41809437 -0.25611851 2.325
-0.41284543 -0.25523725 2.3169999
-0.40815246 -0.25468644 2.312
-0.40330097 -0.25402549 2.306
-0.3993355 -0.25391534 2.3050001
-0.39554492 -0.25391534 2.3050001
-0.3914144 -0.25369504 2.303
-0.36503607 -0.25644898 2.3280001
-0.32431066 -0.25755057 2.3380001
-0.30691323 -0.25909281 2.352
-0.30201459 -0.25821152 2.3440001
-0.29752386 -0.25766075 2.339
-0.29430515 -0.25821152 2.3440001
-0.29094604 -0.25865218 2.348
-0.28855196 -0.25997403 2.3599999
-0.28010264 -0.274515 2.4920001
-0.27312484 -0.27165085 2.4660001
-0.26666903 -0.26922739 2.444
-0.26146773 -0.26801565 2.4330001
-0.25736082 -0.26790547 2.4319999
-0.2537781 -0.26834613 2.4360001
-0.24997714 -0.26856643 2.438
-0.24667405 -0.26933753 2.4449999
-0.24364568 -0.27043912 2.4549999
-0.24048682 -0.27143055 2.464
-0.23681857 -0.27187118 2.4679999
-0.17391536 -0.23606966 2.1429999
-0.16935755 -0.23463763 2.1300001
-0.16507609 -0.23353601 2.1199999
-0.16113241 -0.23287509 2.1140001
-0.15668641 -0.23144303 2.1010001
-0.15286665 -0.23089221 2.096
-0.14892073 -0.23012112 2.089
-0.58882987 -0.27168256 2.4300001
-0.58651841 -0.2724652 2.437
-0.58346689 -0.27291238 2.441
-0.57897782 -0.27268878 2.4389999
-0.5740239 -0.27224156 2.4349999
-0.56861496 -0.27157074 2.4289999
-0.56322581 -0.27089995 2.4230001
-0.55947196 -0.27101174 2.424
-0.55594403 -0.27123535 2.4260001
-0.55377454 -0.27212977 2.434
-0.55270815 -0.2735832 2.447
-0.55339277 -0.27593109 2.4679999
-0.55089223 -0.2767137 2.4749999
-0.54439175 -0.27548385 2.464
-0.53200656 -0.27123535 2.4260001
-0.51648158 -0.26530972 2.3729999
-0.50717908 -0.26251465 2.348
-0.5024603 -0.26206747 2.3440001
-0.49796745 -0.26173204 2.3410001
-0.4936955 -0.26150841 2.339
-0.48984894 -0.26150841 2.339
-0.48579469 -0.26139665 2.3380001
-0.41935316 -0.26072583 2.332
-0.41355819 -0.25949597 2.3210001
-0.40832898 -0.25860152 2.313
-0.40347585 -0.2579307 2.3069999
-0.39898902 -0.25748351 2.303
-0.39554492 -0.25770712 2.3050001
-0.3914144 -0.25748351 2.303
-0.38712215 -0.25714809 2.3
-0.38021749 -0.2575953 2.3039999
-0.37691873 -0.2579307 2.3069999
-0.3729631 -0.25781891 2.306
-0.37013143 -0.25848976 2.312
-0.36728004 -0.25916058 2.3180001
-0.32829586 -0.26150841 2.339
-0.32431066 -0.26139665 2.3380001
-0.32101405 -0.26184383 2.342
-0.31183815 -0.26385629 2.3599999
-0.30678272 -0.26285008 2.3510001
-0.30214342 -0.26217926 2.345
-0.29815987 -0.26206747 2.3440001
-0.29505846 -0.26273826 2.3499999
-0.29230908 -0.26374447 2.359
-0.29001918 -0.26519793 2.372
-0.28442883 -0.27883798 2.494
-0.27785459 -0.27637827 2.4719999
-0.27113122 -0.27369502 2.448
-0.26557794 -0.27212977 2.434
-0.26125279 -0.27179435 2.431
-0.25746664 -0.27201796 2.4330001
-0.25409061 -0.27268878 2.4389999
-0.25048983 -0.27313602 2.4430001
-0.24717849 -0.27391863 2.45
-0.24364568 -0.27447763 2.4549999
-0.24038921 -0.27537209 2.4630001
-0.23653071 -0.27559566 2.4649999
-0.16872147 -0.23724705 2.122
-0.1646089 -0.23635265 2.1140001
-0.1608275 -0.23590541 2.1099999
-0.15661183 -0.23478739 2.0999999
-0.15279371 -0.23422839 2.095
-0.14884944 -0.23344576 2.0880001
-0.58483368 -0.27567995 2.4300001
-0.58251077 -0.27647409 2.437
-0.57850307 -0.27647409 2.437
-0.5742597 -0.27636063 2.4360001
-0.56908321 -0.2757934 2.431
-0.56392318 -0.27522618 2.4260001
-0.56039518 -0.27545303 2.428
-0.55686069 -0.27567995 2.4300001
-0.55468458 -0.27658752 2.438
-0.55248231 -0.27749512 2.4460001
-0.54980516 -0.2781758 2.4519999
-0.5491116 -0.27987754 2.467
-0.54417086 -0.27942374 2.4630001
-0.53332227 -0.27590683 2.4319999
-0.51844037 -0.27023441 2.382
-0.50890708 -0.26728475 2.3559999
-0.50353205 -0.26649061 2.349
-0.49860558 -0.26592338 2.3440001
-0.49432868 -0.26569647 2.342
-0.49026784 -0.26558304 2.3410001
-0.48641807 -0.26558304 2.3410001
-0.48153752 -0.26501578 2.336
-0.47708249 -0.26467544 2.3329999
-0.47365159 -0.26490235 2.335
-0.47061649 -0.26535612 2.339
-0.46736866 -0.26569647 2.342
-0.40417546 -0.26217955 2.3110001
-0.3993355 -0.26149887 2.3050001
-0.39537328 -0.26138541 2.3039999
-0.39158434 -0.26138541 2.3039999
-0.38729051 -0.2610451 2.3010001
-0.38367313 -0.26115853 2.302
-0.3807126 -0.26172575 2.3069999
-0.37757227 -0.26217955 2.3110001
-0.374257 -0.2625199 2.3139999
-0.37109199 -0.2629737 2.3180001
-0.36823067 -0.26365438 2.3239999
-0.32899764 -0.26592338 2.3440001
-0.32486552 -0.26569647 2.342
-0.32128823 -0.26592338 2.3440001
-0.31865227 -0.26694441 2.3529999
-0.31598678 -0.26796544 2.362
-0.31157392 -0.26751164 2.358
-0.30665222 -0.26660404 2.3499999
-0.30227226 -0.26615027 2.346
-0.29866868 -0.26637718 2.348
-0.29581177 -0.26728475 2.3559999
-0.29342431 -0.26864612 2.368
-0.29173091 -0.27068821 2.3859999
-0.29070207 -0.27341098 2.4100001
-0.28249007 -0.28101203 2.477
-0.2758314 -0.27840269 2.454
-0.26958066 -0.27613375 2.434
-0.26481414 -0.2753396 2.427
-0.26103786 -0.27556649 2.4289999
-0.2576783 -0.27624717 2.4349999
-0.25440314 -0.27704132 2.4419999
-0.25100246 -0.277722 2.448
-0.24748117 -0.27828926 2.4530001
-0.24374492 -0.2786296 2.4560001
-0.2399012 -0.27885649 2.4579999
-0.23585901 -0.27885649 2.4579999
-0.17237343 -0.24096471 2.1240001
-0.16824441 -0.24005711 2.1159999
-0.16437529 -0.23948987 2.1110001
-0.16059886 -0.23903607 2.1070001
-0.15646268 -0.23801504 2.098
-0.15264784 -0.23744778 2.0929999
-0.14856429 -0.23642676 2.0840001
-2.9016898 -1.2744309 11.073
-2.8881674 -1.2765025 11.091
-0.58346689 -0.28094336 2.441
-0.57968998 -0.28105846 2.4419999
-0.57614559 -0.28128862 2.444
-0.57119006 -0.28082827 2.4400001
-0.56578273 -0.28013769 2.434
-0.56154925 -0.28002262 2.4330001
-0.55708981 -0.27979243 2.431
-0.55491215 -0.28071317 2.4389999
-0.55225641 -0.28140372 2.4449999
-0.54868406 -0.28163391 2.447
-0.54688579 -0.28278485 2.457
-0.54196149 -0.28232449 2.4530001
-0.53200656 -0.27921697 2.4260001
-0.51931095 -0.2746132 2.3859999
-0.51041907 -0.27196607 2.3629999
-0.505247 -0.27127549 2.3570001
-0.50030726 -0.27070004 2.352
-0.49559513 -0.27023965 2.348
-0.49173385 -0.27023965 2.348
-0.48808029 -0.27035475 2.349
-0.48133141 -0.26874346 2.335
-0.47646901 -0.26816797 2.3299999
-0.47243449 -0.26805291 2.329
-0.46860442 -0.26805291 2.329
-0.46437526 -0.26782268 2.3269999
-0.46074641 -0.26793781 2.3280001
-0.39968199 -0.26552081 2.3069999
-0.39588809 -0.26552081 2.3069999
-0.39192429 -0.26540574 2.306
-0.38813204 -0.26540574 2.306
-0.38483983 -0.265751 2.309
-0.38170275 -0.26621139 2.313
-0.37822577 -0.26644158 2.3150001
-0.37474218 -0.26667175 2.3169999
-0.37157226 -0.26713213 2.3210001
-0.36918136 -0.26816797 2.3299999
-0.32913801 -0.26989436 2.345
-0.32528162 -0.26989436 2.345
-0.32142526 -0.26989436 2.345
-0.31878772 -0.27093023 2.3540001
-0.31545168 -0.27139059 2.358
-0.31117749 -0.27104533 2.355
-0.30652174 -0.27035475 2.349
-0.30252996 -0.27023965 2.348
-0.29917747 -0.27070004 2.352
-0.29631403 -0.27162078 2.3599999
-0.2942917 -0.2733472 2.375
-0.29283133 -0.27564904 2.395
-0.29190832 -0.2785264 2.4200001
-0.29233083 -0.28278485 2.457
-0.29051962 -0.28497165 2.4760001
-0.28644782 -0.28497165 2.4760001
-0.28032318 -0.28289995 2.4579999
-0.27437019 -0.28094336 2.441
-0.26869464 -0.27921697 2.4260001
-0.2645959 -0.27910185 2.425
-0.26103786 -0.27956223 2.4289999
-0.2577841 -0.28036791 2.4360001
-0.25461152 -0.28128862 2.444
-0.25120753 -0.2819792 2.45
-0.24758205 -0.28243959 2.454
-0.24374492 -0.28266978 2.4560001
-0.23960841 -0.28255469 2.4549999
-0.17204879 -0.2439983 2.1199999
-0.16800587 -0.24319267 2.1129999
-0.1641417 -0.2426172 2.108
-0.16044642 -0.24227194 2.105
-0.15638809 -0.24135116 2.0969999
-0.15242904 -0.24054553 2.0899999
-0.14849299 -0.23973985 2.0829999
-2.9050963 -1.2941638 11.086
-2.8928547 -1.2968488 11.109
-2.8800199 -1.2993003 11.13
-0.58274978 -0.28460863 2.438
-0.57921523 -0.28484213 2.4400001
-0.57614559 -0.28530905 2.444
-0.57189232 -0.28519234 2.4430001
-0.5664801 -0.2844919 2.437
-0.56178004 -0.28414169 2.434
-0.55754811 -0.28402492 2.4330001
-0.55422962 -0.28437516 2.4360001
-0.55157876 -0.28507558 2.4419999
-0.54733866 -0.28495884 2.441
-0.54465997 -0.28565928 2.447
-0.53908926 -0.28484213 2.4400001
-0.53025222 -0.28227386 2.418
-0.51887572 -0.27830476 2.3840001
-0.51063514 -0.27596998 2.3640001
-0.5050326 -0.27503607 2.3559999
-0.50009459 -0.27445239 2.3510001
-0.49580619 -0.27421889 2.349
-0.49152437 -0.27398542 2.3469999
-0.4876647 -0.27398542 2.3469999
-0.48091912 -0.27235109 2.3329999
-0.4750376 -0.27118367 2.323
-0.47081169 -0.27095023 2.3210001
-0.46699482 -0.27095023 2.3210001
-0.46277878 -0.27071673 2.319
-0.45876727 -0.27060002 2.3180001
-0.4573105 -0.27200085 2.3299999
-0.40435034 -0.26989958 2.312
-0.4000285 -0.26954937 2.309
-0.39640293 -0.26966608 2.3099999
-0.39243418 -0.26954937 2.309
-0.38830036 -0.26931587 2.3069999
-0.38483983 -0.26954937 2.309
-0.38153774 -0.26989958 2.312
-0.37822577 -0.27024981 2.3150001
-0.37458047 -0.27036652 2.316
-0.37125206 -0.27071673 2.319
-0.36933982 -0.27211761 2.3310001
-0.32899764 -0.27363521 2.3440001
-0.32528162 -0.27375194 2.345
-0.32169938 -0.27398542 2.3469999
-0.31865227 -0.27468586 2.3529999
-0.31505033 -0.27491933 2.355
-0.31130964 -0.27503607 2.3559999
-0.3070437 -0.27468586 2.3529999
-0.30304536 -0.27456912 2.352
-0.29994068 -0.27526954 2.358
-0.29706737 -0.27620345 2.3659999
-0.29503515 -0.27795455 2.381
-0.29368719 -0.28040603 2.402
-0.29299393 -0.28355798 2.4289999
-0.2925688 -0.28706014 2.4590001
-0.28934628 -0.28787732 2.4660001
-0.28424972 -0.28682667 2.457
-0.27861252 -0.28519234 2.4430001
-0.27335858 -0.28390819 2.4319999
-0.26869464 -0.28320777 2.4260001
-0.26481414 -0.28332451 2.427
-0.26136023 -0.28390819 2.4319999
-0.25820741 -0.28484213 2.4400001
-0.25513238 -0.28589275 2.4489999
-0.25192529 -0.28682667 2.457
-0.24808651 -0.28706014 2.4590001
-0.24414189 -0.28717688 2.46
-0.2399012 -0.28694341 2.4579999
-0.16784684 -0.24643514 2.1110001
-0.16406384 -0.24596818 2.1070001
-0.16029397 -0.24550121 2.1029999
-0.15623896 -0.2445673 2.095
-0.15228319 -0.24375014 2.0880001
-0.14835043 -0.24293298 2.0810001
-2.8846774 -1.3197402 11.148
-2.8702013 -1.3215159 11.163
-2.8566978 -1.3237653 11.182
-0.57850307 -0.28850082 2.437
-0.57567412 -0.28909269 2.4419999
-0.57165825 -0.28909269 2.4419999
-0.56671256 -0.28861916 2.438
-0.56201082 -0.28826401 2.4349999
-0.55754811 -0.28802729 2.4330001
-0.55400205 -0.28826401 2.4349999
-0.55067527 -0.28861916 2.438
-0.54621762 -0.28838244 2.4360001
-0.54265666 -0.28861916 2.438
-0.53665888 -0.28755373 2.4289999
-0.52871716 -0.28542283 2.411
-0.51952869 -0.28258163 2.3870001
-0.51128316 -0.28021395 2.3670001
-0.505247 -0.27903011 2.3570001
-0.50030726 -0.27843818 2.352
-0.49601725 -0.2782014 2.3499999
-0.49131495 -0.27772787 2.346
-0.4868336 -0.27737272 2.3429999
-0.48030075 -0.27583373 2.3299999
-0.47442406 -0.27464989 2.3199999
-0.4700003 -0.27429473 2.3169999
-0.46558633 -0.27393958 2.3139999
-0.46118233 -0.27358449 2.3110001
-0.4571839 -0.27346605 2.3099999
-0.45495531 -0.27441314 2.3180001
-0.45367345 -0.27595213 2.3310001
-0.45254186 -0.2776095 2.345
-0.40382564 -0.27334771 2.309
-0.39985526 -0.27322933 2.3080001
-0.39623132 -0.27334771 2.309
-0.39260411 -0.27346605 2.3099999
-0.38863701 -0.27334771 2.309
-0.38500649 -0.27346605 2.3099999
-0.38153774 -0.27370286 2.312
-0.37822577 -0.27405801 2.3150001
-0.37490398 -0.27441314 2.3180001
-0.37189242 -0.27500504 2.323
-0.37060738 -0.27689919 2.339
-0.32941869 -0.27784625 2.3469999
-0.32583648 -0.27808303 2.349
-0.32183647 -0.27796465 2.348
-0.31838146 -0.27831981 2.3510001
-0.31464899 -0.27843818 2.352
-0.31091321 -0.27855656 2.3529999
-0.30678272 -0.27831981 2.3510001
-0.30278763 -0.2782014 2.3499999
-0.29981348 -0.27903011 2.3570001
-0.29731849 -0.28033233 2.368
-0.29540691 -0.28222647 2.3840001
-0.29393175 -0.28459415 2.404
-0.29299393 -0.28755373 2.4289999
-0.29209286 -0.29063168 2.4549999
-0.28793827 -0.29051331 2.454
-0.28309283 -0.28968462 2.447
-0.27804229 -0.28861916 2.438
-0.27335858 -0.28790888 2.4319999
-0.26902688 -0.28755373 2.4289999
-0.2653597 -0.28790888 2.4319999
-0.2621125 -0.28873754 2.4389999
-0.25894815 -0.28968462 2.447
-0.25575745 -0.29063168 2.4549999
-0.2523354 -0.29134199 2.461
-0.24808651 -0.29110524 2.4590001
-0.24424113 -0.29134199 2.461
-0.17180534 -0.25061807 2.1170001
-0.16752882 -0.24943422 2.1070001
-0.16375236 -0.24896067 2.1029999
-0.16006529 -0.24860552 2.0999999
-0.15594065 -0.24754009 2.0910001
-0.15206438 -0.24682978 2.085
-0.14827915 -0.24623784 2.0799999
-2.889853 -1.3404795 11.168
-2.8643618 -1.3457607 11.212
-0.57614559 -0.29334989 2.444
-0.57212639 -0.29334989 2.444
-0.56717741 -0.29286978 2.4400001
-0.56201082 -0.29226965 2.4349999
-0.55777729 -0.2921496 2.434
-0.55400205 -0.29226965 2.4349999
-0.54999769 -0.29226965 2.4349999
-0.54554492 -0.29202962 2.4330001
-0.54109865 -0.29178953 2.431
-0.53467053 -0.29046923 2.4200001
-0.52740139 -0.28866878 2.405
-0.5197463 -0.28662831 2.388
-0.51236314 -0.28470784 2.372
-0.50610441 -0.28338754 2.3610001
-0.50094545 -0.28266734 2.355
-0.49686155 -0.28254735 2.3540001
-0.49215266 -0.28206721 2.3499999
-0.46898606 -0.27750614 2.312
-0.46478155 -0.27726609 2.3099999
-0.45998493 -0.27666593 2.3050001
-0.45619437 -0.27666593 2.3050001
-0.45377764 -0.27750614 2.312
-0.45211643 -0.27882645 2.323
-0.45061204 -0.28026679 2.335
-0.44811144 -0.28110701 2.342
-0.44710541 -0.28290746 2.3570001
-0.40382564 -0.27714604 2.309
-0.39985526 -0.27702603 2.3080001
-0.39605975 -0.27702603 2.3080001
-0.39243418 -0.27714604 2.309
-0.3888053 -0.27726609 2.3099999
-0.38517317 -0.2773861 2.3110001
-0.38153774 -0.27750614 2.312
-0.37789899 -0.27762616 2.313
-0.37474218 -0.27810624 2.3169999
-0.37205249 -0.27894646 2.3239999
-0.32998016 -0.28218725 2.3510001
-0.32625264 -0.28230727 2.352
-0.32211059 -0.28206721 2.3499999
-0.31824601 -0.28206721 2.3499999
-0.31438139 -0.28206721 2.3499999
-0.31051683 -0.28206721 2.3499999
-0.30678272 -0.28218725 2.3510001
-0.30304536 -0.28230727 2.352
-0.30006787 -0.28314748 2.359
-0.29744405 -0.28434777 2.369
-0.29602644 -0.28674832 2.3889999
-0.29454309 -0.2891489 2.4089999
-0.29323515 -0.29178953 2.431
-0.29161695 -0.29419011 2.451
-0.28723425 -0.29383004 2.448
-0.28228298 -0.29286978 2.4400001
-0.27758613 -0.2921496 2.434
-0.27335858 -0.29190955 2.4319999
-0.26946992 -0.29202962 2.4330001
-0.26579615 -0.29238969 2.4360001
-0.2628648 -0.29358998 2.4460001
-0.25958309 -0.29443017 2.4530001
-0.25627837 -0.29527038 2.46
-0.25295061 -0.29611057 2.467
-0.24869181 -0.29587048 2.4649999
-0.17107494 -0.25302029 2.108
-0.16697222 -0.25206006 2.0999999
-0.16320729 -0.25157994 2.096
-0.1596842 -0.25145993 2.095
-0.15579149 -0.25073975 2.089
-0.15199146 -0.25013962 2.0840001
-0.14827915 -0.24965948 2.0799999
-0.57543838 -0.2970053 2.441
-0.57142413 -0.2970053 2.441
-0.5664801 -0.29651862 2.437
-0.56154925 -0.29603192 2.4330001
-0.55731893 -0.29591024 2.4319999
-0.55377454 -0.2961536 2.434
-0.54954594 -0.29603192 2.4330001
-0.54487222 -0.2956669 2.4300001
-0.54020828 -0.29530188 2.427
-0.53334486 -0.29372013 2.414
-0.52630496 -0.29201671 2.4000001
-0.51887572 -0.29006994 2.3840001
-0.51193112 -0.28836647 2.3699999
-0.50589001 -0.28714973 2.3599999
-0.50094545 -0.28654137 2.355
-0.49728367 -0.28666306 2.3559999
-0.46276948 -0.27984932 2.3
-0.45918673 -0.279971 2.3010001
-0.45579851 -0.28021434 2.303
-0.45318887 -0.28094441 2.309
-0.45172721 -0.28240448 2.3210001
-0.45022604 -0.28386453 2.3329999
-0.44849417 -0.28520298 2.3440001
-0.44729513 -0.28690639 2.358
-0.40382564 -0.28094441 2.309
-0.40020171 -0.28106606 2.3099999
-0.39640293 -0.28106606 2.3099999
-0.39243418 -0.28094441 2.309
-0.38863701 -0.28094441 2.309
-0.38533983 -0.28130943 2.312
-0.38153774 -0.28130943 2.312
-0.37773564 -0.28130943 2.312
-0.37441874 -0.28167444 2.3150001
-0.39242929 -0.31440464 2.5840001
-0.38908118 -0.31513467 2.5899999
-0.3301205 -0.28617635 2.352
-0.32639134 -0.28629804 2.3529999
-0.32224768 -0.2860547 2.3510001
-0.31811059 -0.28581133 2.349
-0.31398007 -0.28556797 2.3469999
-0.31025258 -0.28568965 2.348
-0.30652174 -0.28581133 2.349
-0.30317417 -0.28629804 2.3529999
-0.30044946 -0.28739309 2.362
-0.29807183 -0.28885317 2.3740001
-0.29676992 -0.2914083 2.395
-0.29527667 -0.29384181 2.415
-0.29359704 -0.2961536 2.434
-0.29126 -0.29785702 2.448
-0.28653023 -0.29712695 2.4419999
-0.28182024 -0.29639694 2.4360001
-0.27735803 -0.29591024 2.4319999
-0.273471 -0.29603192 2.4330001
-0.27002367 -0.29664028 2.438
-0.26634172 -0.2970053 2.441
-0.26307973 -0.29785702 2.448
-0.2600064 -0.29895207 2.457
-0.2565909 -0.29968214 2.4630001
-0.25325823 -0.30053383 2.47
-0.17075032 -0.25600132 2.1040001
-0.16681321 -0.25527126 2.098
-0.1629737 -0.25466287 2.0929999
-0.15937932 -0.25441957 2.0910001
-0.15556775 -0.25381115 2.086
-0.15169971 -0.25308111 2.0799999
-0.14806527 -0.25271609 2.0769999
-0.57567412 -0.30114409 2.4419999
-0.57165825 -0.30114409 2.4419999
-0.56671256 -0.30065084 2.438
-0.56201082 -0.30028087 2.4349999
-0.55777729 -0.30015755 2.434
-0.55354708 -0.30003425 2.4330001
-0.5490942 -0.29978761 2.431
-0.54375106 -0.29904768 2.425
-0.53820503 -0.29818445 2.418
-0.5320192 -0.29695129 2.408
-0.52498913 -0.29522482 2.3940001
-0.51800513 -0.29349837 2.3800001
-0.51149917 -0.29201853 2.368
-0.50567567 -0.29090866 2.359
-0.50115818 -0.2905387 2.3559999
-0.4619647 -0.28313959 2.296
-0.45858806 -0.28338623 2.2980001
-0.45579851 -0.28400281 2.303
-0.4526 -0.28437278 2.306
-0.45114329 -0.28585261 2.3180001
-0.4496471 -0.28733242 2.3299999
-0.44772878 -0.28856561 2.3399999
-0.44672605 -0.29041541 2.355
-0.40207672 -0.28350955 2.299
-0.39950874 -0.28437278 2.306
-0.39605975 -0.28461942 2.3080001
-0.39209422 -0.28449607 2.3069999
-0.38830036 -0.28449607 2.3069999
-0.38500649 -0.28486603 2.3099999
-0.38137272 -0.28498939 2.3110001
-0.37773564 -0.28511268 2.312
-0.37441874 -0.28548265 2.3150001
-0.3931886 -0.31927195 2.589
-0.38983235 -0.32001185 2.595
-0.32597518 -0.2897988 2.3499999
-0.32183647 -0.28955218 2.348
-0.31770432 -0.28930554 2.346
-0.31357875 -0.28905889 2.3440001
-0.30998829 -0.28930554 2.346
-0.30652174 -0.28967547 2.349
-0.3034319 -0.29041541 2.355
-0.30095828 -0.29177189 2.3659999
-0.29895073 -0.29362169 2.381
-0.29788515 -0.29645801 2.404
-0.29637709 -0.29892436 2.424
-0.29407954 -0.30065084 2.438
-0.29090309 -0.30151406 2.4449999
-0.28582627 -0.30040422 2.4360001
-0.28135747 -0.2999109 2.4319999
-0.27735803 -0.2999109 2.4319999
-0.273471 -0.30003425 2.4330001
-0.27035594 -0.3010208 2.441
-0.26677814 -0.30151406 2.4449999
-0.26340213 -0.30225399 2.451
-0.26021805 -0.30324054 2.4590001
-0.25679925 -0.30398044 2.4649999
-0.17091262 -0.25970906 2.1059999
-0.16665418 -0.25847587 2.096
-0.16289584 -0.25798258 2.092
-0.15915065 -0.25748932 2.0880001
-0.15534401 -0.25687271 2.0829999
-0.15155385 -0.25625613 2.0780001
-0.14785141 -0.25576285 2.0739999
-0.57072186 -0.30466139 2.438
-0.56601518 -0.30428648 2.4349999
-0.56154925 -0.30403659 2.4330001
-0.55731893 -0.3039116 2.4319999
-0.55377454 -0.30416155 2.434
-0.54886836 -0.3036617 2.4300001
-0.54352683 -0.30291191 2.424
-0.53753728 -0.3017872 2.415
-0.53069359 -0.3001627 2.402
-0.52455056 -0.29891306 2.392
-0.51778746 -0.29728854 2.3789999
-0.51149917 -0.29591393 2.368
-0.50567567 -0.29478925 2.359
-0.50094545 -0.29428941 2.355
-0.45878759 -0.28729144 2.299
-0.45599642 -0.28791624 2.3039999
-0.45318887 -0.28854108 2.309
-0.45075405 -0.28941581 2.316
-0.44926116 -0.2909154 2.3280001
-0.44753745 -0.29228997 2.339
-0.40032783 -0.2860418 2.289
-0.39812279 -0.28716651 2.2980001
-0.39520171 -0.28779128 2.303
-0.39175436 -0.28804123 2.3050001
-0.38813204 -0.2881662 2.306
-0.38467318 -0.28841612 2.3080001
-0.38137272 -0.288791 2.3110001
-0.37773564 -0.28891596 2.312
-0.37458047 -0.28941581 2.316
-0.39303675 -0.32340595 2.5880001
-0.38938165 -0.3239058 2.592
-0.32528162 -0.29303977 2.345
-0.32128823 -0.29291481 2.3440001
-0.31716263 -0.29266489 2.342
-0.31357875 -0.29291481 2.3440001
-0.31025258 -0.29341465 2.348
-0.3070437 -0.29403946 2.3529999
-0.30420497 -0.29503918 2.3610001
-0.30197591 -0.29666373 2.3740001
-0.30045739 -0.29903799 2.3929999
-0.29516512 -0.30578607 2.447
-0.29114103 -0.30578607 2.447
-0.2857089 -0.30428648 2.4349999
-0.28135747 -0.3039116 2.4319999
-0.27747208 -0.30403659 2.4330001
-0.2739206 -0.30453643 2.437
-0.27024519 -0.30491132 2.4400001
-0.26688728 -0.30566111 2.4460001
-0.26361707 -0.30653587 2.4530001
-0.26032385 -0.3074106 2.46
-0.17115609 -0.26354834 2.109
-0.1667337 -0.26204875 2.0969999
-0.1627401 -0.26117402 2.0899999
-0.15892199 -0.26054925 2.085
-0.15504572 -0.25979945 2.079
-0.15126212 -0.25917462 2.0739999
-0.14756626 -0.25867474 2.0699999
-0.56908321 -0.30778569 2.431
-0.56462049 -0.30753243 2.4289999
-0.56085682 -0.30765909 2.4300001
-0.55686069 -0.30765909 2.4300001
-0.553092 -0.30778569 2.431
-0.54864246 -0.30753243 2.4289999
-0.5433026 -0.3067728 2.4230001
-0.53731471 -0.30563334 2.414
-0.5304727 -0.30398741 2.401
-0.5238927 -0.30246809 2.3889999
-0.51800513 -0.30132863 2.3800001
-0.51171511 -0.29993594 2.369
-0.50610441 -0.29892308 2.3610001
-0.50158358 -0.29854327 2.358
-0.46337312 -0.29157978 2.303
-0.45938626 -0.29145315 2.302
-0.45639226 -0.29195961 2.306
-0.45318887 -0.29233944 2.309
-0.45094869 -0.29335228 2.3169999
-0.44868222 -0.29436517 2.325
-0.40215021 -0.28841457 2.2780001
-0.39980313 -0.28942743 2.286
-0.39725652 -0.29031369 2.293
-0.3943437 -0.29094672 2.2980001
-0.39107451 -0.29132655 2.3010001
-0.38779539 -0.29170635 2.3039999
-0.38450649 -0.29208618 2.3069999
-0.38137272 -0.29259264 2.3110001
-0.37806237 -0.29297245 2.3139999
-0.37490398 -0.29347891 2.3180001
-0.39197367 -0.32677701 2.5810001
-0.38802961 -0.32703018 2.5829999
-0.32913801 -0.29689735 2.345
-0.32514295 -0.29677072 2.3440001
-0.32101405 -0.29651752 2.342
-0.31702721 -0.29639089 2.3410001
-0.31344497 -0.29664409 2.3429999
-0.31038472 -0.29740378 2.349
-0.30743518 -0.29829001 2.3559999
-0.30484918 -0.29955611 2.3659999
-0.30286631 -0.30145526 2.381
-0.29649198 -0.31120411 2.4579999
-0.29137897 -0.31006464 2.4489999
-0.2859436 -0.30854535 2.437
-0.28147316 -0.30803892 2.4330001
-0.27747208 -0.30803892 2.4330001
-0.27403298 -0.30867192 2.438
-0.27090973 -0.30968481 2.4460001
-0.26699638 -0.30981141 2.447
-0.26361707 -0.31057107 2.4530001
-0.26021805 -0.31133074 2.4590001
-0.16665418 -0.26537177 2.096
-0.16258438 -0.26435891 2.0880001
-0.15861709 -0.26347268 2.0810001
-0.15459825 -0.26245975 2.073
-0.15082453 -0.26182675 2.0680001
-0.14706723 -0.26119366 2.063
-0.56884909 -0.31165648 2.4300001
-0.56438804 -0.31139994 2.428
-0.56039518 -0.31139994 2.428
-0.55686069 -0.31165648 2.4300001
-0.55286449 -0.31165648 2.4300001
-0.54819071 -0.3112717 2.427
-0.54285413 -0.3105022 2.421
-0.53709215 -0.30947617 2.4130001
-0.5304727 -0.30793709 2.401
-0.52367336 -0.30626982 2.388
-0.51756978 -0.30498728 2.378
-0.51193112 -0.30396122 2.3699999
-0.50653309 -0.30306345 2.3629999
-0.50243443 -0.30293521 2.362
-0.46397671 -0.295753 2.306
-0.45978534 -0.29549649 2.3039999
-0.45678812 -0.29600951 2.3080001
-0.45338508 -0.29626599 2.3099999
-0.45114329 -0.29729205 2.3180001
-0.44926116 -0.2985746 2.3280001
-0.40250325 -0.29241839 2.28
-0.40015295 -0.29344445 2.2880001
-0.39725652 -0.29408571 2.293
-0.3940005 -0.29447049 2.296
-0.39090452 -0.29498348 2.3
-0.38762709 -0.29536822 2.303
-0.38450649 -0.29588124 2.3069999
-0.38153774 -0.29652253 2.312
-0.37822577 -0.29690731 2.3150001
-0.37490398 -0.29729205 2.3180001
-0.32857659 -0.30024189 2.3410001
-0.32514295 -0.30062667 2.3440001
-0.32101405 -0.30037013 2.342
-0.31729802 -0.30049837 2.3429999
-0.31371254 -0.3007549 2.345
-0.31104538 -0.30190921 2.3540001
-0.3084791 -0.30319172 2.3640001
-0.30639535 -0.30498728 2.378
-0.30477428 -0.30729583 2.3959999
-0.29745701 -0.3162736 2.4660001
-0.29149798 -0.31422156 2.45
-0.28606093 -0.31268248 2.438
-0.28147316 -0.31204122 2.4330001
-0.27747208 -0.31204122 2.4330001
-0.27369577 -0.3122977 2.4349999
-0.27035594 -0.31306726 2.441
-0.26677814 -0.31358024 2.4449999
-0.26329467 -0.31422156 2.45
-0.17066915 -0.26971748 2.1029999
-0.16665418 -0.26881972 2.096
-0.16266224 -0.26792192 2.089
-0.15861709 -0.26689595 2.0810001
-0.15474741 -0.26612642 2.075
-0.15089746 -0.26535687 2.069
-0.14706723 -0.26458734 2.063
-0.56392318 -0.31513426 2.4260001
-0.5599336 -0.31513426 2.4260001
-0.55617315 -0.31526417 2.427
-0.55240941 -0.31539404 2.428
-0.54773897 -0.31500435 2.425
-0.54240566 -0.31422496 2.4189999
-0.53664696 -0.31318578 2.411
-0.53003079 -0.311627 2.3989999
-0.52323478 -0.30993828 2.3859999
-0.51691687 -0.30850941 2.375
-0.51128316 -0.30747023 2.3670001
-0.50631875 -0.30682072 2.362
-0.50307262 -0.30721045 2.365
-0.46437916 -0.29980621 2.3080001
-0.46038401 -0.2996763 2.3069999
-0.45698601 -0.29993612 2.309
-0.45358142 -0.3001959 2.3110001
-0.45153254 -0.30136499 2.3199999
-0.45003307 -0.30292377 2.332
-0.44811144 -0.30422276 2.342
-0.40373901 -0.29707831 2.2869999
-0.40067759 -0.29759791 2.2909999
-0.39742976 -0.29798764 2.2939999
-0.39417207 -0.29837731 2.2969999
-0.39073458 -0.29863712 2.299
-0.38762709 -0.2991567 2.303
-0.38450649 -0.2996763 2.3069999
-0.38170275 -0.30045569 2.313
-0.37855253 -0.30097529 2.3169999
-0.37490398 -0.3011052 2.3180001
-0.33185837 -0.30357328 2.3369999
-0.32815552 -0.30370319 2.3380001
-0.32472679 -0.30409288 2.3410001
-0.32128823 -0.30448258 2.3440001
-0.31770432 -0.30474234 2.346
-0.31438139 -0.30526194 2.3499999
-0.31197032 -0.30669087 2.3610001
-0.31004497 -0.30863932 2.3759999
-0.30819917 -0.3107177 2.392
-0.30693674 -0.31344557 2.4130001
-0.30648413 -0.31708273 2.441
-0.30544379 -0.32020029 2.4649999
-0.30273503 -0.3216292 2.4760001
-0.29757762 -0.32046008 2.467
-0.29114103 -0.31786215 2.447
-0.28582627 -0.31643325 2.4360001
-0.28147316 -0.31604356 2.4330001
-0.27735803 -0.31591362 2.4319999
-0.27358338 -0.31617346 2.434
-0.27002367 -0.31669304 2.438
-0.26666903 -0.31747243 2.444
-0.17083147 -0.27343678 2.105
-0.16681321 -0.27252749 2.098
-0.1627401 -0.27148828 2.0899999
-0.15861709 -0.27031919 2.0810001
-0.15467283 -0.26940989 2.0739999
-0.15067866 -0.26837072 2.066
-0.14685339 -0.26759133 2.0599999
-0.56369066 -0.31899351 2.425
-0.55970275 -0.31899351 2.425
-0.55594403 -0.31912509 2.4260001
-0.55195445 -0.31912509 2.4260001
-0.54796487 -0.31912509 2.4260001
-0.54285413 -0.31846735 2.421
-0.53664696 -0.3171519 2.411
-0.53069359 -0.31596804 2.402
-0.52279621 -0.31360024 2.3840001
-0.51713449 -0.31254786 2.3759999
-0.51149917 -0.31149554 2.368
-0.50631875 -0.31070626 2.362
-0.50307262 -0.3111009 2.365
-0.49960548 -0.311364 2.3670001
-0.46538514 -0.30426064 2.313
-0.46118233 -0.30399755 2.3110001
-0.45738187 -0.30399755 2.3110001
-0.45417014 -0.30439216 2.3139999
-0.44849417 -0.30833849 2.3440001
-0.44615695 -0.30939084 2.352
-0.4096382 -0.30241904 2.299
-0.40497476 -0.30176127 2.2939999
-0.40102738 -0.30162975 2.293
-0.39708328 -0.30149823 2.2920001
-0.3940005 -0.30202439 2.296
-0.39073458 -0.30241904 2.299
-0.3874588 -0.30281365 2.302
-0.38417315 -0.30320826 2.3050001
-0.38203281 -0.30452371 2.3150001
-0.37887928 -0.3050499 2.319
-0.37506565 -0.3050499 2.319
-0.34274116 -0.31031162 2.359
-0.33627617 -0.30794388 2.3410001
-0.33256838 -0.3080754 2.342
-0.32871693 -0.3080754 2.342
-0.32500419 -0.30820695 2.3429999
-0.32156232 -0.30860156 2.346
-0.31838146 -0.3092593 2.3510001
-0.31505033 -0.30978546 2.355
-0.31329167 -0.31189018 2.3710001
-0.31161088 -0.31412643 2.388
-0.31013188 -0.31662574 2.4070001
-0.30897194 -0.3195197 2.4289999
-0.30836749 -0.32307139 2.4560001
-0.30668288 -0.3255707 2.4749999
-0.30322409 -0.32622841 2.48
-0.29673326 -0.32359755 2.46
-0.29042718 -0.32109821 2.441
-0.28547424 -0.32004589 2.4330001
-0.28124177 -0.31978279 2.431
-0.27724397 -0.31978279 2.431
-0.27335858 -0.31991431 2.4319999
-0.26991293 -0.32057205 2.437
-0.26655996 -0.32136133 2.4430001
-0.17553514 -0.27887267 2.1199999
-0.17107494 -0.27729416 2.108
-0.16681321 -0.27597871 2.098
-0.1627401 -0.27492636 2.0899999
-0.15854086 -0.27361092 2.0799999
-0.15459825 -0.27269012 2.073
-0.15053278 -0.27150622 2.0639999
-0.14671081 -0.270717 2.0580001
-0.56299335 -0.32258311 2.4219999
-0.55901033 -0.32258311 2.4219999
-0.55548567 -0.32284951 2.424
-0.55149943 -0.32284951 2.424
-0.54773897 -0.3229827 2.425
-0.5433026 -0.32271633 2.4230001
-0.53731471 -0.32151762 2.414
-0.53091455 -0.32005256 2.4030001
-0.52411199 -0.31832108 2.3900001
-0.51691687 -0.31632325 2.375
-0.51171511 -0.3155241 2.369
-0.50653309 -0.31472498 2.3629999
-0.5026471 -0.31472498 2.3629999
-0.4989723 -0.3148582 2.3640001
-0.46458036 -0.30753279 2.309
-0.46058363 -0.3073996 2.3080001
-0.4571839 -0.30766597 2.3099999
-0.45515153 -0.30886468 2.319
-0.44983348 -0.31312671 2.3510001
-0.44672605 -0.31365949 2.355
-0.44341737 -0.31405905 2.358
-0.43935323 -0.31392586 2.3570001
-0.43436855 -0.31312671 2.3510001
-0.41539699 -0.30766597 2.3099999
-0.41017273 -0.30660048 2.302
-0.40532786 -0.30580136 2.296
-0.40120226 -0.30553496 2.2939999
-0.39708328 -0.30526859 2.2920001
-0.39417207 -0.30593452 2.2969999
-0.39090452 -0.30633411 2.3
-0.3874588 -0.30660048 2.302
-0.38433981 -0.30713323 2.306
-0.38203281 -0.30833194 2.3150001
-0.37887928 -0.30886468 2.319
-0.37522739 -0.30899787 2.3199999
-0.34114298 -0.31272715 2.348
-0.33598888 -0.31152847 2.339
-0.33200037 -0.31139529 2.3380001
-0.32885727 -0.31206122 2.3429999
-0.32542035 -0.31246078 2.346
-0.32211059 -0.3129935 2.3499999
-0.31892315 -0.31365949 2.355
-0.31612054 -0.31472498 2.3629999
-0.31474516 -0.31725559 2.382
-0.31330726 -0.31978616 2.401
-0.31180686 -0.32231677 2.4200001
-0.31049839 -0.32511371 2.441
-0.30949748 -0.32831022 2.4649999
-0.30693072 -0.32990849 2.477
-0.30224594 -0.32924256 2.4719999
-0.29552704 -0.32631242 2.45
-0.28971329 -0.32431456 2.4349999
-0.28512228 -0.32364863 2.4300001
-0.28101039 -0.32351544 2.4289999
-0.27701589 -0.32351544 2.4289999
-0.27313378 -0.32364863 2.4300001
-0.26958066 -0.32418138 2.434
-0.26612347 -0.32484731 2.4389999
-0.1791904 -0.28262651 2.122
-0.17528677 -0.28196058 2.1170001
-0.17091262 -0.28049546 2.1059999
-0.16665418 -0.27916357 2.096
-0.16250651 -0.27796489 2.0869999
-0.15838844 -0.27676621 2.0780001
-0.15437451 -0.27570069 2.0699999
-0.15038693 -0.2746352 2.062
-0.14649695 -0.27370286 2.0550001
-0.56229597 -0.32616284 2.4189999
-0.55831796 -0.32616284 2.4189999
-0.55502737 -0.32656732 2.4219999
-0.55104434 -0.32656732 2.4219999
-0.54728729 -0.32670221 2.4230001
-0.54285413 -0.32643253 2.421
-0.53775984 -0.32575834 2.4159999
-0.53157735 -0.32441002 2.4059999
-0.52433127 -0.32238752 2.391
-0.51778746 -0.32076949 2.3789999
-0.51128316 -0.31915149 2.3670001
-0.50631875 -0.31847733 2.362
-0.50200903 -0.31820765 2.3599999
-0.49770582 -0.317938 2.358
-0.4790639 -0.31335363 2.3239999
-0.46898606 -0.31173566 2.312
-0.46437916 -0.31119633 2.3080001
-0.46058363 -0.31119633 2.3080001
-0.45777765 -0.31187046 2.313
-0.45632917 -0.31348848 2.325
-0.45079014 -0.31766832 2.3559999
-0.44672605 -0.31753349 2.355
-0.44247711 -0.31726381 2.3529999
-0.4376756 -0.31658968 2.348
-0.43215144 -0.31537613 2.339
-0.42574131 -0.31348848 2.325
-0.41992167 -0.31200528 2.3139999
-0.41593644 -0.31187046 2.313
-0.41052908 -0.31065696 2.3039999
-0.40603399 -0.31011763 2.3
-0.40207672 -0.30998281 2.299
-0.39812279 -0.30984798 2.2980001
-0.39485854 -0.31025249 2.3010001
-0.39107451 -0.31025249 2.3010001
-0.38796374 -0.31079179 2.3050001
-0.38483983 -0.31133115 2.309
-0.38252789 -0.31254464 2.3180001
-0.37920606 -0.31294915 2.3210001
-0.37538916 -0.31294915 2.3210001
-0.37269291 -0.31389299 2.3280001
-0.33954477 -0.31510645 2.3369999
-0.33527064 -0.314702 2.3340001
-0.33171636 -0.31497166 2.336
-0.32885727 -0.3159155 2.3429999
-0.32597518 -0.3168593 2.3499999
-0.32293302 -0.31766832 2.3559999
-0.32027736 -0.31888181 2.365
-0.31812727 -0.32063466 2.378
-0.3168593 -0.32333136 2.398
-0.31526458 -0.32575834 2.4159999
-0.31322417 -0.32778087 2.431
-0.31100717 -0.32966852 2.4449999
-0.30874416 -0.33155623 2.4590001
-0.30519596 -0.33209553 2.4630001
-0.30028966 -0.33115172 2.4560001
-0.29432079 -0.32899436 2.4400001
-0.28911841 -0.32764602 2.4300001
-0.28477025 -0.32724151 2.427
-0.28077903 -0.32724151 2.427
-0.27667376 -0.32710671 2.4260001
-0.27268419 -0.32710671 2.4260001
-0.26891613 -0.32737637 2.428
-0.2653597 -0.32791567 2.4319999
-0.17758596 -0.28355536 2.1029999
-0.17437597 -0.28395987 2.1059999
-0.17034453 -0.28301606 2.099
-0.16625665 -0.28193739 2.0910001
-0.16211718 -0.28072387 2.082
-0.15815976 -0.27978003 2.075
-0.15422538 -0.27883622 2.0680001
-0.14994933 -0.27721819 2.056
-0.14628308 -0.27667886 2.052
-0.55877954 -0.3304151 2.421
-0.55479819 -0.3304151 2.421
-0.55081683 -0.3304151 2.421
-0.54660964 -0.33027864 2.4200001
-0.54218143 -0.33000568 2.418
-0.53709215 -0.32932329 2.4130001
-0.5317983 -0.32850441 2.4070001
-0.52411199 -0.32618427 2.3900001
-0.51756978 -0.32454655 2.378
-0.51128316 -0.32304525 2.3670001
-0.50589001 -0.32208991 2.3599999
-0.50137091 -0.32168049 2.3570001
-0.49686155 -0.32127103 2.3540001
-0.49068666 -0.31976977 2.3429999
-0.48434025 -0.31813204 2.3310001
-0.47885779 -0.31704018 2.323
-0.47483307 -0.31690371 2.322
-0.46979743 -0.31608483 2.316
-0.46498275 -0.31540245 2.3110001
-0.46138188 -0.31553891 2.312
-0.45876727 -0.31635779 2.3180001
-0.45809564 -0.31854147 2.3340001
-0.45270354 -0.32290876 2.3659999
-0.44172493 -0.32058865 2.349
-0.43599796 -0.31922385 2.339
-0.43048859 -0.31799552 2.3299999
-0.42427638 -0.3162213 2.3169999
-0.41901433 -0.31512949 2.309
-0.41557685 -0.31540245 2.3110001
-0.41106361 -0.31485653 2.3069999
-0.40621057 -0.31403765 2.3010001
-0.40242657 -0.31403765 2.3010001
-0.39846927 -0.31390116 2.3
-0.39468688 -0.31390116 2.3
-0.39073458 -0.31376472 2.299
-0.38729051 -0.31403765 2.3010001
-0.38467318 -0.31499302 2.3080001
-0.38219783 -0.31608483 2.316
-0.37887928 -0.31649426 2.319
-0.3755509 -0.31690371 2.322
-0.37285298 -0.31785905 2.329
-0.34353495 -0.31908739 2.3380001
-0.33867306 -0.31813204 2.3310001
-0.33498335 -0.31826851 2.332
-0.33171636 -0.3188144 2.336
-0.32913801 -0.32004273 2.345
-0.3273623 -0.32208991 2.3599999
-0.32485196 -0.32345468 2.3699999
-0.32257956 -0.32509243 2.382
-0.32053524 -0.32700315 2.3959999
-0.31818065 -0.32864088 2.408
-0.31604755 -0.33055159 2.4219999
-0.31348187 -0.33205289 2.4330001
-0.31062558 -0.33328113 2.4419999
-0.30786526 -0.33464593 2.4519999
-0.303709 -0.33450946 2.451
-0.29894471 -0.33369058 2.4449999
-0.29359704 -0.33218932 2.434
-0.28888044 -0.33137044 2.428
-0.28453556 -0.33096102 2.425
-0.28066334 -0.33109751 2.4260001
-0.27644566 -0.33082455 2.424
-0.272347 -0.33068809 2.4230001
-0.26847312 -0.33082455 2.424
-0.17750151 -0.28687838 2.102
-0.17421037 -0.28715134 2.1040001
-0.17026338 -0.28633246 2.098
-0.16625665 -0.28537712 2.0910001
-0.16211718 -0.28414881 2.082
-0.15800732 -0.28292048 2.073
-0.15415078 -0.2821016 2.0669999
-0.15002227 -0.28073683 2.0569999
-0.14635436 -0.28019091 2.053
-0.55548567 -0.33481207 2.424
-0.55036181 -0.33412144 2.4189999
-0.54638374 -0.33412144 2.4189999
-0.54150873 -0.33356896 2.415
-0.53597921 -0.33260208 2.408
-0.53003079 -0.33135897 2.3989999
-0.5238927 -0.32997772 2.3889999
-0.51735216 -0.32832026 2.3770001
-0.51085109 -0.32666278 2.365
-0.5050326 -0.32541963 2.3559999
-0.50094545 -0.32528153 2.355
-0.49643943 -0.32486716 2.352
-0.49026784 -0.32334781 2.3410001
-0.48413241 -0.32182842 2.3299999
-0.4790639 -0.32099965 2.3239999
-0.47565109 -0.32127592 2.326
-0.47060886 -0.32044721 2.3199999
-0.46578759 -0.3197566 2.3150001
-0.46198055 -0.3197566 2.3150001
