ply
format ascii 1.0
comment PCL generated
element vertex 1594
property float x
property float y
property float z
element face 0
element camera 0
property float view_px
property float view_py
property float view_pz
property float x_axisx
property float x_axisy
property float x_axisz
property float y_axisx
property float y_axisy
property float y_axisz
property float z_axisx
property float z_axisy
property float z_axisz
property float focal
property float scalex
property float scaley
property float centerx
property float centery
property int viewportx
property int viewporty
property float k1
property float k2
end_header
-0.69199997 2.1340001 -0.36700001
-0.69300002 2.138 -0.366
-0.69400001 2.142 -0.36399999
-0.69499999 2.1470001 -0.36300001
-0.69700003 2.1530001 -0.361
-0.699 2.1589999 -0.36000001
-0.70099998 2.1659999 -0.359
-0.70300001 2.1719999 -0.35800001
-0.70599997 2.178 -0.35600001
-0.70700002 2.1830001 -0.35499999
-0.708 2.1860001 -0.35299999
-0.70899999 2.1900001 -0.35100001
-0.70899999 2.1930001 -0.34999999
-0.66000003 2.0179999 -0.542
-0.65200001 1.999 -0.52200001
-0.65200001 2 -0.51999998
-0.65200001 2 -0.51800001
-0.65200001 1.999 -0.51499999
-0.65200001 1.999 -0.51300001
-0.65200001 1.999 -0.51099998
-0.65200001 2 -0.509
-0.65200001 2.0020001 -0.50700003
-0.65799999 2.03 -0.44600001
-0.65799999 2.0280001 -0.44400001
-0.65700001 2.027 -0.44100001
-0.65700001 2.026 -0.43900001
-0.67299998 2.082 -0.41299999
-0.67199999 2.0799999 -0.41100001
-0.671 2.0769999 -0.40799999
-0.67000002 2.072 -0.405
-0.66900003 2.069 -0.40200001
-0.66799998 2.0680001 -0.39899999
-0.66799998 2.0669999 -0.39700001
-0.667 2.066 -0.39500001
-0.667 2.0669999 -0.39300001
-0.66799998 2.0680001 -0.391
-0.66799998 2.069 -0.389
-0.66799998 2.069 -0.38699999
-0.66799998 2.0710001 -0.38499999
-0.67000002 2.076 -0.384
-0.68199998 2.1129999 -0.37900001
-0.68400002 2.1199999 -0.37799999
-0.685 2.1240001 -0.377
-0.68599999 2.128 -0.375
-0.68599999 2.1300001 -0.373
-0.68699998 2.131 -0.37099999
-0.68800002 2.1340001 -0.36899999
-0.69 2.1400001 -0.368
-0.69199997 2.1459999 -0.36700001
-0.69300002 2.151 -0.366
-0.69499999 2.1570001 -0.36399999
-0.69700003 2.164 -0.36300001
-0.699 2.171 -0.36199999
-0.70099998 2.177 -0.361
-0.70300001 2.1819999 -0.359
-0.704 2.187 -0.35800001
-0.70499998 2.1900001 -0.35600001
-0.70499998 2.1919999 -0.354
-0.61799997 1.919 -0.308
-0.64999998 2.0020001 -0.52200001
-0.64999998 2.003 -0.52100003
-0.64999998 2.003 -0.51800001
-0.64899999 2.0009999 -0.51499999
-0.64899999 2.0009999 -0.51300001
-0.64899999 2.0009999 -0.51099998
-0.64899999 2.0020001 -0.509
-0.64999998 2.0039999 -0.50700003
-0.65700001 2.036 -0.447
-0.65600002 2.0339999 -0.44499999
-0.65499997 2.033 -0.442
-0.65499997 2.0320001 -0.44
-0.667 2.0739999 -0.41100001
-0.667 2.075 -0.40900001
-0.667 2.0739999 -0.40700001
-0.66600001 2.0710001 -0.40400001
-0.66600001 2.0710001 -0.40200001
-0.66600001 2.072 -0.40000001
-0.66600001 2.073 -0.398
-0.66600001 2.073 -0.396
-0.66600001 2.0739999 -0.39399999
-0.66600001 2.075 -0.39199999
-0.66600001 2.076 -0.38999999
-0.667 2.0769999 -0.38800001
-0.66799998 2.0810001 -0.38699999
-0.671 2.089 -0.38600001
-0.67799997 2.112 -0.37900001
-0.68000001 2.119 -0.37799999
-0.68099999 2.125 -0.37599999
-0.68300003 2.1289999 -0.375
-0.68400002 2.1329999 -0.373
-0.685 2.135 -0.37200001
-0.68599999 2.1400001 -0.37
-0.68800002 2.1470001 -0.36899999
-0.69 2.1530001 -0.368
-0.69199997 2.1589999 -0.36700001
-0.69400001 2.165 -0.366
-0.69599998 2.1730001 -0.36399999
-0.69800001 2.1789999 -0.36300001
-0.699 2.184 -0.36199999
-0.70099998 2.1889999 -0.36000001
-0.70200002 2.1919999 -0.359
-0.64999998 2.029 -0.33000001
-0.64700001 2.0039999 -0.523
-0.64600003 2.003 -0.51999998
-0.64600003 2.0020001 -0.51800001
-0.64600003 2.0020001 -0.51499999
-0.64600003 2.0020001 -0.51300001
-0.64600003 2.0020001 -0.51099998
-0.64600003 2.003 -0.509
-0.64600003 2.006 -0.50800002
-0.64700001 2.0090001 -0.50599998
-0.64899999 2.0120001 -0.505
-0.65399998 2.04 -0.44800001
-0.653 2.0369999 -0.44600001
-0.653 2.0350001 -0.44299999
-0.653 2.0350001 -0.44
-0.65399998 2.0409999 -0.43900001
-0.65799999 2.0510001 -0.44
-0.61299998 1.914 -0.384
-0.64399999 2.0139999 -0.40200001
-0.66100001 2.0650001 -0.41
-0.66100001 2.0669999 -0.40799999
-0.662 2.069 -0.40599999
-0.662 2.0699999 -0.40400001
-0.662 2.072 -0.40200001
-0.662 2.0739999 -0.40000001
-0.66299999 2.076 -0.398
-0.66399997 2.0780001 -0.39700001
-0.66500002 2.0799999 -0.39500001
-0.66500002 2.082 -0.39300001
-0.66600001 2.085 -0.391
-0.667 2.089 -0.38999999
-0.67000002 2.0969999 -0.389
-0.67299998 2.108 -0.389
-0.67500001 2.1140001 -0.38800001
-0.67500001 2.115 -0.38600001
-0.67500001 2.115 -0.384
-0.67500001 2.1140001 -0.38100001
-0.67500001 2.1170001 -0.37900001
-0.67699999 2.122 -0.37799999
-0.67799997 2.1270001 -0.377
-0.68000001 2.1329999 -0.37599999
-0.68199998 2.138 -0.37400001
-0.68300003 2.142 -0.373
-0.685 2.1470001 -0.37200001
-0.68699998 2.154 -0.37099999
-0.68800002 2.1589999 -0.36899999
-0.68900001 2.1630001 -0.36700001
-0.69099998 2.168 -0.366
-0.69300002 2.175 -0.36500001
-0.69400001 2.1800001 -0.36300001
-0.69499999 2.1830001 -0.36199999
-0.67900002 2.131 -0.35100001
-0.64499998 2.0239999 -0.331
-0.597 1.859 -0.48899999
-0.62699997 1.955 -0.51200002
-0.64300001 2.003 -0.52200001
-0.64300001 2.0039999 -0.51999998
-0.64300001 2.003 -0.51800001
-0.64200002 2.0020001 -0.51499999
-0.64200002 2.0009999 -0.51300001
-0.64200002 2.0020001 -0.51099998
-0.64200002 2.003 -0.509
-0.64200002 2.0039999 -0.50700003
-0.64300001 2.006 -0.505
-0.64300001 2.006 -0.50300002
-0.60399997 1.892 -0.41999999
-0.63499999 1.993 -0.44
-0.65100002 2.0409999 -0.44800001
-0.64999998 2.0380001 -0.44600001
-0.64899999 2.0369999 -0.44299999
-0.64899999 2.0380001 -0.44100001
-0.65100002 2.043 -0.44
-0.653 2.0510001 -0.43900001
-0.65600002 2.063 -0.40900001
-0.65700001 2.066 -0.40700001
-0.65799999 2.069 -0.405
-0.65799999 2.0710001 -0.40400001
-0.65899998 2.0739999 -0.40200001
-0.66000003 2.076 -0.40099999
-0.66100001 2.0780001 -0.39899999
-0.66100001 2.0810001 -0.39700001
-0.662 2.085 -0.39500001
-0.66299999 2.089 -0.39399999
-0.66500002 2.0940001 -0.39300001
-0.667 2.0999999 -0.39199999
-0.67000002 2.108 -0.391
-0.67299998 2.118 -0.391
-0.67400002 2.122 -0.38999999
-0.67299998 2.1210001 -0.38699999
-0.67299998 2.1199999 -0.38499999
-0.67299998 2.1199999 -0.382
-0.67299998 2.1229999 -0.38
-0.67500001 2.128 -0.37900001
-0.676 2.1329999 -0.377
-0.67799997 2.1389999 -0.37599999
-0.68000001 2.1440001 -0.375
-0.68099999 2.148 -0.37400001
-0.68199998 2.1530001 -0.37200001
-0.68400002 2.1600001 -0.37099999
-0.68599999 2.165 -0.37
-0.68699998 2.168 -0.368
-0.68800002 2.1719999 -0.366
-0.69 2.177 -0.36500001
-0.69099998 2.1800001 -0.36300001
-0.69099998 2.181 -0.361
-0.64200002 2.01 -0.528
-0.64099997 2.007 -0.52499998
-0.63999999 2.0039999 -0.52200001
-0.639 2.003 -0.51999998
-0.639 2.003 -0.51700002
-0.639 2.0039999 -0.51599997
-0.639 2.0039999 -0.514
-0.639 2.0039999 -0.51099998
-0.639 2.0039999 -0.509
-0.639 2.0039999 -0.50700003
-0.639 2.0050001 -0.505
-0.639 2.007 -0.50300002
-0.60000002 1.892 -0.42500001
-0.64899999 2.0450001 -0.45699999
-0.648 2.043 -0.45500001
-0.648 2.0420001 -0.45300001
-0.64700001 2.0409999 -0.44999999
-0.64600003 2.039 -0.44800001
-0.64600003 2.0369999 -0.44499999
-0.64600003 2.0369999 -0.44299999
-0.64700001 2.04 -0.44100001
-0.648 2.046 -0.44
-0.65100002 2.053 -0.44
-0.60399997 1.91 -0.38
-0.653 2.0639999 -0.40900001
-0.653 2.066 -0.40700001
-0.65399998 2.069 -0.405
-0.65499997 2.073 -0.40400001
-0.65600002 2.076 -0.403
-0.65700001 2.079 -0.40099999
-0.65799999 2.082 -0.39899999
-0.65899998 2.086 -0.398
-0.66100001 2.092 -0.396
-0.66299999 2.099 -0.396
-0.66500002 2.1070001 -0.39500001
-0.66799998 2.1159999 -0.39500001
-0.67000002 2.1229999 -0.39399999
-0.671 2.1270001 -0.39199999
-0.671 2.1270001 -0.38999999
-0.671 2.1240001 -0.38699999
-0.67000002 2.1229999 -0.38499999
-0.67000002 2.1240001 -0.38299999
-0.671 2.1270001 -0.38100001
-0.67299998 2.1329999 -0.37900001
-0.67500001 2.138 -0.37799999
-0.67699999 2.145 -0.377
-0.67799997 2.1500001 -0.37599999
-0.67900002 2.154 -0.37400001
-0.68099999 2.1600001 -0.373
-0.68300003 2.168 -0.37200001
-0.685 2.1730001 -0.37099999
-0.68599999 2.1760001 -0.36899999
-0.68699998 2.1789999 -0.36700001
-0.68800002 2.1830001 -0.366
-0.63800001 2.01 -0.528
-0.63700002 2.007 -0.52600002
-0.63599998 2.0050001 -0.523
-0.63599998 2.0039999 -0.51999998
-0.63599998 2.0039999 -0.51800001
-0.63599998 2.0039999 -0.51599997
-0.63599998 2.0050001 -0.514
-0.63599998 2.006 -0.51200002
-0.63599998 2.007 -0.50999999
-0.63599998 2.007 -0.50800002
-0.63599998 2.0090001 -0.50599998
-0.63700002 2.0109999 -0.50400001
-0.64399999 2.0409999 -0.461
-0.64399999 2.0409999 -0.45899999
-0.64399999 2.0409999 -0.456
-0.64300001 2.039 -0.454
-0.64300001 2.039 -0.45199999
-0.64300001 2.039 -0.44999999
-0.64300001 2.039 -0.44800001
-0.64300001 2.0380001 -0.44499999
-0.64300001 2.039 -0.44299999
-0.64399999 2.043 -0.442
-0.64600003 2.0480001 -0.44100001
-0.648 2.0539999 -0.44
-0.64999998 2.0680001 -0.414
-0.64899999 2.0639999 -0.41100001
-0.64899999 2.0639999 -0.40900001
-0.64999998 2.066 -0.40700001
-0.65100002 2.069 -0.405
-0.65200001 2.0739999 -0.40400001
-0.653 2.0780001 -0.403
-0.65399998 2.082 -0.40099999
-0.65600002 2.0869999 -0.40000001
-0.65700001 2.0910001 -0.398
-0.65899998 2.098 -0.398
-0.662 2.109 -0.398
-0.66600001 2.1199999 -0.39700001
-0.66799998 2.1300001 -0.39700001
-0.67000002 2.1340001 -0.396
-0.67000002 2.1329999 -0.39300001
-0.66900003 2.131 -0.391
-0.66799998 2.128 -0.38800001
-0.66799998 2.128 -0.38600001
-0.66799998 2.1300001 -0.384
-0.66900003 2.1329999 -0.382
-0.671 2.1389999 -0.38100001
-0.67299998 2.145 -0.37900001
-0.67500001 2.151 -0.37799999
-0.676 2.1559999 -0.377
-0.67699999 2.1600001 -0.375
-0.67900002 2.165 -0.37400001
-0.68099999 2.1730001 -0.373
-0.68199998 2.178 -0.37200001
-0.68400002 2.181 -0.37
-0.68400002 2.1830001 -0.368
-0.685 2.184 -0.366
-0.63499999 2.01 -0.528
-0.63300002 2.007 -0.52499998
-0.63200003 2.0050001 -0.523
-0.63200003 2.0050001 -0.51999998
-0.63300002 2.0050001 -0.51800001
-0.63300002 2.0050001 -0.51599997
-0.63300002 2.007 -0.514
-0.634 2.0090001 -0.51200002
-0.634 2.01 -0.50999999
-0.634 2.0120001 -0.50800002
-0.63499999 2.0139999 -0.50700003
-0.63599998 2.016 -0.505
-0.64099997 2.04 -0.465
-0.63999999 2.039 -0.46200001
-0.639 2.0380001 -0.46000001
-0.639 2.0380001 -0.458
-0.639 2.0380001 -0.456
-0.639 2.0369999 -0.45300001
-0.639 2.0369999 -0.45100001
-0.639 2.039 -0.44999999
-0.63999999 2.039 -0.44800001
-0.63999999 2.039 -0.44499999
-0.63999999 2.0409999 -0.44299999
-0.64099997 2.0450001 -0.442
-0.64200002 2.049 -0.44
-0.64399999 2.0539999 -0.44
-0.64600003 2.0650001 -0.41299999
-0.64499998 2.063 -0.41100001
-0.64499998 2.0639999 -0.40900001
-0.64600003 2.0669999 -0.40700001
-0.64700001 2.0699999 -0.40599999
-0.64899999 2.075 -0.40400001
-0.64999998 2.0799999 -0.403
-0.65100002 2.085 -0.40200001
-0.653 2.0899999 -0.40099999
-0.65499997 2.096 -0.39899999
-0.65700001 2.105 -0.39899999
-0.66100001 2.118 -0.39899999
-0.66500002 2.128 -0.39899999
-0.667 2.1359999 -0.398
-0.66799998 2.138 -0.396
-0.667 2.135 -0.39300001
-0.66600001 2.1329999 -0.391
-0.66500002 2.131 -0.38800001
-0.66500002 2.132 -0.38600001
-0.66600001 2.135 -0.384
-0.667 2.1400001 -0.38299999
-0.66900003 2.145 -0.382
-0.671 2.1500001 -0.38
-0.67199999 2.1559999 -0.37900001
-0.67400002 2.161 -0.37799999
-0.67500001 2.1659999 -0.37599999
-0.67699999 2.171 -0.375
-0.67799997 2.177 -0.37400001
-0.68000001 2.181 -0.37200001
-0.68000001 2.1830001 -0.37
-0.63 2.02 -0.34
-0.63 2.0090001 -0.528
-0.62900001 2.006 -0.52499998
-0.62900001 2.0050001 -0.52200001
-0.62900001 2.0050001 -0.51999998
-0.62900001 2.006 -0.51800001
-0.62900001 2.007 -0.51599997
-0.63 2.0079999 -0.514
-0.63 2.0109999 -0.51300001
-0.63099998 2.013 -0.51099998
-0.63099998 2.0150001 -0.509
-0.63200003 2.0179999 -0.50800002
-0.63300002 2.0209999 -0.50700003
-0.63300002 2.0220001 -0.505
-0.63300002 2.0209999 -0.50199997
-0.63800001 2.0420001 -0.47400001
-0.63700002 2.04 -0.47099999
-0.63599998 2.039 -0.46900001
-0.63599998 2.039 -0.46700001
-0.63599998 2.039 -0.465
-0.63599998 2.0380001 -0.46200001
-0.63499999 2.0369999 -0.46000001
-0.63499999 2.036 -0.45699999
-0.63499999 2.036 -0.45500001
-0.63499999 2.036 -0.45300001
-0.63599998 2.0369999 -0.45100001
-0.63599998 2.0380001 -0.449
-0.63599998 2.039 -0.447
-0.63599998 2.039 -0.44499999
-0.63599998 2.04 -0.44299999
-0.63700002 2.0439999 -0.442
-0.63800001 2.049 -0.44100001
-0.63999999 2.053 -0.44
-0.64200002 2.059 -0.43900001
-0.64399999 2.0680001 -0.43799999
-0.59600002 1.914 -0.38699999
-0.62599999 2.0139999 -0.405
-0.64200002 2.0639999 -0.41299999
-0.64200002 2.0639999 -0.41100001
-0.64200002 2.066 -0.40900001
-0.64300001 2.0699999 -0.40799999
-0.64499998 2.0739999 -0.40599999
-0.64600003 2.0780001 -0.405
-0.64700001 2.0829999 -0.40400001
-0.64899999 2.0880001 -0.403
-0.65100002 2.0940001 -0.40200001
-0.653 2.1010001 -0.40099999
-0.65600002 2.1099999 -0.40000001
-0.66000003 2.1229999 -0.40000001
-0.662 2.131 -0.39899999
-0.66299999 2.1340001 -0.398
-0.66299999 2.135 -0.396
-0.662 2.1329999 -0.39300001
-0.662 2.132 -0.391
-0.662 2.132 -0.38800001
-0.66299999 2.1340001 -0.38600001
-0.66399997 2.1389999 -0.38499999
-0.66500002 2.1440001 -0.38299999
-0.66600001 2.148 -0.382
-0.66799998 2.1530001 -0.38100001
-0.67000002 2.1600001 -0.38
-0.67199999 2.1659999 -0.37900001
-0.67400002 2.1730001 -0.37799999
-0.67500001 2.178 -0.37599999
-0.67699999 2.1830001 -0.375
-0.66100001 2.1300001 -0.36399999
-0.62599999 2.02 -0.34299999
-0.62900001 2.016 -0.52899998
-0.62800002 2.0120001 -0.52600002
-0.62699997 2.0090001 -0.523
-0.62699997 2.0090001 -0.52100003
-0.62699997 2.01 -0.51899999
-0.62699997 2.01 -0.51599997
-0.62699997 2.0120001 -0.514
-0.62800002 2.016 -0.51300001
-0.62900001 2.0179999 -0.51200002
-0.62900001 2.0190001 -0.50999999
-0.63 2.02 -0.50800002
-0.63 2.023 -0.50700003
-0.63 2.0250001 -0.505
-0.63 2.0250001 -0.50300002
-0.58600003 1.886 -0.442
-0.616 1.985 -0.463
-0.63200003 2.0350001 -0.472
-0.63200003 2.0350001 -0.47
-0.63200003 2.0350001 -0.46799999
-0.63200003 2.036 -0.46599999
-0.63200003 2.0369999 -0.46399999
-0.63200003 2.0369999 -0.46200001
-0.63200003 2.0369999 -0.46000001
-0.63200003 2.0380001 -0.458
-0.63200003 2.0380001 -0.456
-0.63200003 2.0369999 -0.45300001
-0.63200003 2.0380001 -0.45100001
-0.63300002 2.04 -0.44999999
-0.63300002 2.0420001 -0.44800001
-0.63300002 2.0420001 -0.44600001
-0.634 2.0439999 -0.44400001
-0.63499999 2.0480001 -0.44299999
-0.63599998 2.0510001 -0.44100001
-0.63700002 2.0539999 -0.44
-0.63800001 2.059 -0.43900001
-0.63999999 2.066 -0.43799999
-0.625 2.0190001 -0.42500001
-0.59399998 1.918 -0.40200001
-0.639 2.066 -0.41299999
-0.639 2.0669999 -0.41100001
-0.63999999 2.0699999 -0.40900001
-0.64099997 2.0739999 -0.40799999
-0.64300001 2.079 -0.40700001
-0.64399999 2.0829999 -0.40599999
-0.64499998 2.0880001 -0.40400001
-0.64700001 2.092 -0.403
-0.64899999 2.099 -0.40200001
-0.65100002 2.108 -0.40099999
-0.65399998 2.118 -0.40099999
-0.65799999 2.1289999 -0.40099999
-0.65899998 2.1340001 -0.40000001
-0.65899998 2.1340001 -0.39700001
-0.65899998 2.1340001 -0.39500001
-0.65799999 2.135 -0.39300001
-0.65899998 2.1359999 -0.391
-0.66000003 2.1370001 -0.389
-0.66100001 2.141 -0.38699999
-0.662 2.1459999 -0.38600001
-0.66299999 2.1500001 -0.384
-0.66399997 2.155 -0.38299999
-0.66600001 2.161 -0.382
-0.66799998 2.168 -0.38100001
-0.67000002 2.174 -0.38
-0.67199999 2.1789999 -0.37900001
-0.67299998 2.1830001 -0.377
-0.67400002 2.187 -0.375
-0.62800002 2.0239999 -0.53100002
-0.62599999 2.0190001 -0.52700001
-0.62599999 2.016 -0.52399999
-0.62599999 2.017 -0.52200001
-0.62599999 2.017 -0.51999998
-0.625 2.0179999 -0.51800001
-0.62599999 2.0190001 -0.51599997
-0.62699997 2.023 -0.51499999
-0.62800002 2.0250001 -0.51300001
-0.62800002 2.026 -0.51099998
-0.62800002 2.027 -0.50999999
-0.62800002 2.029 -0.50800002
-0.62900001 2.03 -0.50599998
-0.62900001 2.0320001 -0.50400001
-0.58200002 1.881 -0.465
-0.62800002 2.0320001 -0.47099999
-0.62800002 2.0339999 -0.47
-0.62800002 2.0350001 -0.46799999
-0.62900001 2.036 -0.46599999
-0.63 2.043 -0.45699999
-0.63 2.043 -0.454
-0.63 2.0439999 -0.45199999
-0.63099998 2.046 -0.45100001
-0.63099998 2.0469999 -0.449
-0.63099998 2.0469999 -0.447
-0.63099998 2.049 -0.44499999
-0.63200003 2.0510001 -0.44299999
-0.63300002 2.0539999 -0.44100001
-0.63300002 2.0550001 -0.43900001
-0.634 2.059 -0.43799999
-0.63599998 2.0650001 -0.43700001
-0.63700002 2.069 -0.43599999
-0.63700002 2.0710001 -0.43399999
-0.58999997 1.92 -0.39199999
-0.588 1.913 -0.384
-0.63599998 2.069 -0.414
-0.63700002 2.0710001 -0.412
-0.63800001 2.0739999 -0.41
-0.639 2.0780001 -0.40900001
-0.64099997 2.0840001 -0.40799999
-0.64200002 2.0899999 -0.40700001
-0.64399999 2.095 -0.405
-0.64399999 2.098 -0.40400001
-0.64600003 2.1040001 -0.40200001
-0.64899999 2.1129999 -0.40200001
-0.65200001 2.122 -0.40099999
-0.65399998 2.1289999 -0.40099999
-0.65499997 2.1329999 -0.39899999
-0.65499997 2.1340001 -0.39700001
-0.65499997 2.135 -0.39500001
-0.65600002 2.1370001 -0.39399999
-0.65600002 2.1400001 -0.39199999
-0.65700001 2.1429999 -0.38999999
-0.65799999 2.1459999 -0.38800001
-0.65899998 2.1500001 -0.38600001
-0.66000003 2.154 -0.38499999
-0.662 2.158 -0.384
-0.66299999 2.164 -0.382
-0.66600001 2.1719999 -0.382
-0.66799998 2.178 -0.38
-0.66900003 2.1830001 -0.37900001
-0.671 2.188 -0.377
-0.67199999 2.194 -0.37599999
-0.62599999 2.029 -0.53200001
-0.62400001 2.0239999 -0.528
-0.62400001 2.0220001 -0.52600002
-0.62400001 2.0220001 -0.52399999
-0.62400001 2.0220001 -0.52200001
-0.62400001 2.023 -0.51999998
-0.62400001 2.0239999 -0.51800001
-0.625 2.026 -0.51599997
-0.625 2.0280001 -0.514
-0.625 2.03 -0.51200002
-0.625 2.03 -0.50999999
-0.625 2.03 -0.50800002
-0.625 2.03 -0.50599998
-0.625 2.0309999 -0.50400001
-0.62400001 2.033 -0.472
-0.625 2.036 -0.47
-0.62599999 2.039 -0.46900001
-0.62699997 2.0420001 -0.46700001
-0.63 2.0550001 -0.45899999
-0.63099998 2.0569999 -0.45699999
-0.63099998 2.0569999 -0.45500001
-0.63099998 2.0569999 -0.45300001
-0.63 2.056 -0.44999999
-0.63 2.0550001 -0.44800001
-0.63 2.0539999 -0.44600001
-0.63 2.0539999 -0.44299999
-0.63 2.0539999 -0.44100001
-0.63 2.0550001 -0.43900001
-0.63 2.0580001 -0.43700001
-0.63099998 2.062 -0.43599999
-0.63200003 2.066 -0.435
-0.63300002 2.069 -0.433
-0.634 2.0710001 -0.42300001
-0.63300002 2.069 -0.41999999
-0.63200003 2.0680001 -0.41800001
-0.63200003 2.069 -0.41600001
-0.63300002 2.0699999 -0.414
-0.63300002 2.072 -0.412
-0.634 2.075 -0.41
-0.63599998 2.079 -0.40900001
-0.63700002 2.0840001 -0.40799999
-0.639 2.089 -0.40599999
-0.63999999 2.095 -0.405
-0.64200002 2.1010001 -0.40400001
-0.64399999 2.108 -0.403
-0.64600003 2.1159999 -0.40200001
-0.648 2.1229999 -0.40200001
-0.64999998 2.128 -0.40000001
-0.65100002 2.132 -0.39899999
-0.65100002 2.1340001 -0.39700001
-0.65200001 2.1359999 -0.39500001
-0.653 2.1400001 -0.39399999
-0.65399998 2.1440001 -0.39199999
-0.65499997 2.1470001 -0.38999999
-0.65600002 2.151 -0.389
-0.65700001 2.155 -0.38699999
-0.65799999 2.1589999 -0.38600001
-0.66000003 2.1630001 -0.384
-0.66100001 2.168 -0.38299999
-0.66299999 2.174 -0.382
-0.66399997 2.1800001 -0.38
-0.66600001 2.1849999 -0.37900001
-0.58399999 1.916 -0.331
-0.625 2.0369999 -0.53399998
-0.62300003 2.0309999 -0.52999997
-0.57499999 1.876 -0.48800001
-0.57499999 1.875 -0.48100001
-0.62199998 2.0280001 -0.51800001
-0.62199998 2.0280001 -0.51599997
-0.62199998 2.029 -0.514
-0.62199998 2.0309999 -0.51300001
-0.62199998 2.03 -0.50999999
-0.62099999 2.0280001 -0.50700003
-0.62 2.027 -0.505
-0.62 2.027 -0.50300002
-0.62199998 2.0350001 -0.47600001
-0.62099999 2.0350001 -0.47400001
-0.62199998 2.0369999 -0.472
-0.62300003 2.0409999 -0.47099999
-0.57800001 1.891 -0.435
-0.58200002 1.9069999 -0.41600001
-0.62800002 2.059 -0.447
-0.62699997 2.0569999 -0.44400001
-0.62599999 2.0550001 -0.44100001
-0.62599999 2.0550001 -0.43900001
-0.62599999 2.0569999 -0.43700001
-0.62699997 2.0599999 -0.43599999
-0.62800002 2.063 -0.43399999
-0.62900001 2.0680001 -0.433
-0.63 2.0699999 -0.43099999
-0.63 2.0699999 -0.42899999
-0.63 2.0699999 -0.42699999
-0.63 2.0699999 -0.42500001
-0.62900001 2.069 -0.42199999
-0.62900001 2.0669999 -0.41999999
-0.62900001 2.0669999 -0.417
-0.62900001 2.069 -0.41600001
-0.62900001 2.0710001 -0.414
-0.63 2.072 -0.412
-0.63099998 2.075 -0.41
-0.63200003 2.0799999 -0.40900001
-0.634 2.0840001 -0.40700001
-0.634 2.0869999 -0.40599999
-0.63599998 2.0940001 -0.405
-0.639 2.1029999 -0.40400001
-0.64099997 2.1110001 -0.40400001
-0.64300001 2.1170001 -0.40200001
-0.64399999 2.1229999 -0.40200001
-0.64600003 2.128 -0.40000001
-0.64700001 2.132 -0.39899999
-0.648 2.135 -0.39700001
-0.64899999 2.1389999 -0.396
-0.64999998 2.1440001 -0.39399999
-0.65200001 2.148 -0.39300001
-0.653 2.152 -0.391
-0.65399998 2.1559999 -0.38999999
-0.65499997 2.1600001 -0.38800001
-0.65600002 2.164 -0.38699999
-0.65700001 2.1670001 -0.38499999
-0.65799999 2.171 -0.38299999
-0.65899998 2.175 -0.382
-0.66100001 2.181 -0.38
-0.66299999 2.188 -0.38
-0.57300001 1.88 -0.47999999
-0.60399997 1.98 -0.50400001
-0.61900002 2.0309999 -0.514
-0.61900002 2.0309999 -0.51200002
-0.61799997 2.029 -0.50999999
-0.61699998 2.026 -0.50599998
-0.61699998 2.0250001 -0.50400001
-0.61699998 2.026 -0.50199997
-0.61699998 2.027 -0.5
-0.61699998 2.03 -0.49900001
-0.61900002 2.036 -0.47999999
-0.61900002 2.036 -0.479
-0.61900002 2.0369999 -0.477
-0.61900002 2.0369999 -0.47400001
-0.60399997 1.989 -0.461
-0.57499999 1.8940001 -0.43700001
-0.57700002 1.903 -0.40900001
-0.60699999 2.0050001 -0.428
-0.62300003 2.0580001 -0.43700001
-0.62400001 2.0599999 -0.43599999
-0.62400001 2.0639999 -0.43399999
-0.62599999 2.0680001 -0.433
-0.62699997 2.0699999 -0.43099999
-0.62699997 2.0699999 -0.42899999
-0.62599999 2.0699999 -0.42699999
-0.62599999 2.0680001 -0.42399999
-0.62599999 2.0680001 -0.42199999
-0.62599999 2.0680001 -0.41999999
-0.62599999 2.069 -0.41800001
-0.62599999 2.0710001 -0.41600001
-0.62699997 2.073 -0.414
-0.62699997 2.0739999 -0.412
-0.62800002 2.0780001 -0.41
-0.62900001 2.0829999 -0.40900001
-0.63099998 2.0869999 -0.40799999
-0.63099998 2.0899999 -0.40599999
-0.63300002 2.095 -0.405
-0.63499999 2.1029999 -0.40400001
-0.63700002 2.1099999 -0.40400001
-0.639 2.1170001 -0.403
-0.64099997 2.1229999 -0.40200001
-0.64300001 2.1300001 -0.40099999
-0.64399999 2.1340001 -0.39899999
-0.64499998 2.138 -0.398
-0.64600003 2.1429999 -0.396
-0.648 2.1489999 -0.39500001
-0.64899999 2.1530001 -0.39300001
-0.64999998 2.1559999 -0.39199999
-0.65100002 2.1589999 -0.38999999
-0.65200001 2.1630001 -0.389
-0.653 2.1659999 -0.38699999
-0.65399998 2.1700001 -0.38600001
-0.65499997 2.1730001 -0.384
-0.65499997 2.1760001 -0.382
-0.63999999 2.1270001 -0.37099999
-0.61000001 2.0250001 -0.35100001
-0.616 2.033 -0.51499999
-0.61500001 2.0320001 -0.51200002
-0.61400002 2.029 -0.50999999
-0.61299998 2.0250001 -0.50599998
-0.61299998 2.0239999 -0.50400001
-0.61299998 2.0250001 -0.50199997
-0.61400002 2.027 -0.5
-0.61400002 2.03 -0.49900001
-0.59899998 1.982 -0.48500001
-0.56900001 1.882 -0.45899999
-0.56999999 1.8890001 -0.44999999
-0.60000002 1.988 -0.47099999
-0.61500001 2.0369999 -0.48100001
-0.61500001 2.036 -0.47799999
-0.61500001 2.0369999 -0.47600001
-0.616 2.039 -0.47499999
-0.62099999 2.062 -0.43799999
-0.62199998 2.066 -0.43700001
-0.62199998 2.069 -0.435
-0.62300003 2.072 -0.43399999
-0.62300003 2.073 -0.43200001
-0.62300003 2.072 -0.42899999
-0.62199998 2.0699999 -0.42699999
-0.62199998 2.0669999 -0.42399999
-0.62199998 2.0669999 -0.421
-0.62199998 2.0680001 -0.41999999
-0.62199998 2.0699999 -0.41800001
-0.62199998 2.072 -0.41600001
-0.62300003 2.073 -0.414
-0.62300003 2.0739999 -0.412
-0.62400001 2.0769999 -0.41
-0.625 2.082 -0.40900001
-0.62699997 2.0869999 -0.40799999
-0.62800002 2.092 -0.40599999
-0.63 2.098 -0.405
-0.63200003 2.1040001 -0.40400001
-0.634 2.1110001 -0.40400001
-0.63599998 2.119 -0.403
-0.63800001 2.1270001 -0.40200001
-0.63999999 2.135 -0.40099999
-0.64200002 2.1400001 -0.40000001
-0.64300001 2.1440001 -0.39899999
-0.64399999 2.148 -0.39700001
-0.64600003 2.154 -0.396
-0.64700001 2.1589999 -0.39500001
-0.648 2.1619999 -0.39300001
-0.64899999 2.164 -0.391
-0.64899999 2.1670001 -0.389
-0.64999998 2.1689999 -0.38699999
-0.65100002 2.1719999 -0.38600001
-0.65200001 2.175 -0.384
-0.653 2.1789999 -0.38299999
-0.78200001 2.5999999 -0.67699999
-0.78200001 2.5999999 -0.67699999
-0.77999997 2.5940001 -0.66399997
-0.82599998 2.747 -0.70200002
-0.61000001 2.0280001 -0.509
-0.61000001 2.0250001 -0.50599998
-0.60900003 2.0239999 -0.50400001
-0.60900003 2.0250001 -0.50199997
-0.61000001 2.027 -0.5
-0.61000001 2.029 -0.498
-0.611 2.0309999 -0.49700001
-0.611 2.0339999 -0.495
-0.61199999 2.036 -0.493
-0.61199999 2.0369999 -0.491
-0.61299998 2.039 -0.49000001
-0.61299998 2.0409999 -0.48800001
-0.61299998 2.0420001 -0.486
-0.61299998 2.0409999 -0.484
-0.61299998 2.0409999 -0.48199999
-0.61299998 2.0409999 -0.479
-0.62 2.0699999 -0.435
-0.62 2.0739999 -0.43399999
-0.62 2.0739999 -0.43200001
-0.62 2.073 -0.42899999
-0.61900002 2.0699999 -0.426
-0.61799997 2.0680001 -0.42399999
-0.61799997 2.0680001 -0.421
-0.61900002 2.0699999 -0.41999999
-0.61900002 2.072 -0.41800001
-0.62 2.075 -0.417
-0.62 2.076 -0.41499999
-0.62099999 2.0780001 -0.41299999
-0.62199998 2.0810001 -0.41100001
-0.62300003 2.086 -0.40900001
-0.62400001 2.0910001 -0.40799999
-0.62599999 2.0969999 -0.40700001
-0.62800002 2.1029999 -0.40599999
-0.63 2.109 -0.405
-0.63200003 2.1159999 -0.40400001
-0.634 2.1240001 -0.40400001
-0.63599998 2.132 -0.403
-0.63800001 2.1400001 -0.40200001
-0.63999999 2.145 -0.40099999
-0.64099997 2.148 -0.39899999
-0.64200002 2.152 -0.398
-0.64300001 2.1570001 -0.39700001
-0.64399999 2.161 -0.39500001
-0.64499998 2.1630001 -0.39300001
-0.64499998 2.165 -0.391
-0.64499998 2.1659999 -0.389
-0.64600003 2.168 -0.38699999
-0.64600003 2.1700001 -0.38499999
-0.64700001 2.1730001 -0.384
-0.648 2.177 -0.382
-0.60600001 2.0239999 -0.50400001
-0.60600001 2.0250001 -0.50199997
-0.60600001 2.026 -0.5
-0.60600001 2.0280001 -0.498
-0.60699999 2.03 -0.49599999
-0.60699999 2.0320001 -0.49399999
-0.60799998 2.0339999 -0.493
-0.60799998 2.0350001 -0.491
-0.60900003 2.0369999 -0.48899999
-0.60900003 2.039 -0.48699999
-0.61000001 2.0409999 -0.486
-0.61000001 2.0420001 -0.484
-0.61000001 2.043 -0.48199999
-0.61000001 2.0450001 -0.47999999
-0.61699998 2.075 -0.43599999
-0.61799997 2.0769999 -0.43399999
-0.61799997 2.0769999 -0.43200001
-0.61699998 2.075 -0.42899999
-0.616 2.073 -0.42699999
-0.61500001 2.0699999 -0.42399999
-0.61500001 2.0699999 -0.42199999
-0.616 2.073 -0.41999999
-0.616 2.075 -0.419
-0.61699998 2.0780001 -0.417
-0.61799997 2.0799999 -0.41499999
-0.61799997 2.082 -0.41299999
-0.61900002 2.085 -0.412
-0.62 2.089 -0.41
-0.62199998 2.095 -0.40900001
-0.62400001 2.1029999 -0.40799999
-0.62599999 2.1099999 -0.40799999
-0.62800002 2.1170001 -0.40599999
-0.63 2.1240001 -0.40599999
-0.63200003 2.131 -0.405
-0.634 2.1389999 -0.40400001
-0.63599998 2.1459999 -0.403
-0.63800001 2.151 -0.40200001
-0.63800001 2.152 -0.40000001
-0.639 2.154 -0.398
-0.63999999 2.158 -0.39700001
-0.64099997 2.161 -0.39500001
-0.64099997 2.1619999 -0.39300001
-0.64099997 2.1630001 -0.38999999
-0.64099997 2.165 -0.38800001
-0.64200002 2.1670001 -0.38600001
-0.64200002 2.168 -0.384
-0.64300001 2.171 -0.38299999
-0.64399999 2.175 -0.38100001
-0.602 2.0239999 -0.50400001
-0.602 2.0250001 -0.50099999
-0.602 2.026 -0.49900001
-0.60299999 2.027 -0.498
-0.60299999 2.029 -0.49599999
-0.60299999 2.0309999 -0.49399999
-0.60399997 2.0320001 -0.49200001
-0.60399997 2.0339999 -0.491
-0.60500002 2.036 -0.48899999
-0.60500002 2.0369999 -0.48699999
-0.60600001 2.04 -0.48500001
-0.60600001 2.0420001 -0.484
-0.60699999 2.0450001 -0.48199999
-0.60799998 2.0480001 -0.47999999
-0.61500001 2.0810001 -0.43700001
-0.61500001 2.0810001 -0.435
-0.61500001 2.0799999 -0.433
-0.61400002 2.0780001 -0.43000001
-0.61299998 2.076 -0.42699999
-0.61299998 2.0739999 -0.42500001
-0.61199999 2.0739999 -0.42300001
-0.61299998 2.0769999 -0.421
-0.61400002 2.079 -0.419
-0.61500001 2.082 -0.417
-0.616 2.0840001 -0.41600001
-0.616 2.0869999 -0.414
-0.61699998 2.0910001 -0.41299999
-0.61799997 2.095 -0.41100001
-0.62 2.1010001 -0.41
-0.62300003 2.1110001 -0.41
-0.625 2.1199999 -0.40900001
-0.62699997 2.1259999 -0.40799999
-0.62900001 2.132 -0.40700001
-0.63 2.1389999 -0.40599999
-0.63200003 2.1459999 -0.405
-0.634 2.152 -0.40400001
-0.63499999 2.155 -0.403
-0.63499999 2.155 -0.40000001
-0.63499999 2.1559999 -0.398
-0.63599998 2.1589999 -0.39700001
-0.63700002 2.1600001 -0.39500001
-0.63700002 2.161 -0.39199999
-0.63700002 2.1630001 -0.38999999
-0.63800001 2.165 -0.38800001
-0.63800001 2.1670001 -0.38600001
-0.639 2.1689999 -0.38499999
-0.59200001 2.0090001 -0.354
-0.59899998 2.026 -0.50400001
-0.59899998 2.0250001 -0.50099999
-0.59899998 2.026 -0.49900001
-0.59899998 2.0280001 -0.498
-0.60000002 2.03 -0.49599999
-0.60000002 2.0309999 -0.49399999
-0.60000002 2.0320001 -0.49200001
-0.60000002 2.033 -0.49000001
-0.60100001 2.0350001 -0.48800001
-0.60100001 2.036 -0.48699999
-0.602 2.039 -0.48500001
-0.60299999 2.043 -0.484
-0.60399997 2.0480001 -0.48300001
-0.60500002 2.053 -0.48199999
-0.59899998 2.0320001 -0.45699999
-0.59799999 2.029 -0.454
-0.61199999 2.0840001 -0.43799999
-0.61199999 2.0810001 -0.435
-0.611 2.0799999 -0.433
-0.611 2.079 -0.43000001
-0.61000001 2.0780001 -0.428
-0.61000001 2.0780001 -0.42500001
-0.61000001 2.079 -0.42300001
-0.611 2.082 -0.42199999
-0.61199999 2.085 -0.41999999
-0.61299998 2.0869999 -0.41800001
-0.61400002 2.0910001 -0.417
-0.61500001 2.096 -0.41600001
-0.61699998 2.1010001 -0.414
-0.61799997 2.1059999 -0.41299999
-0.62 2.1140001 -0.412
-0.62400001 2.125 -0.412
-0.625 2.132 -0.412
-0.62599999 2.1359999 -0.41
-0.62800002 2.1400001 -0.40900001
-0.62900001 2.1459999 -0.40799999
-0.63 2.151 -0.40599999
-0.63200003 2.155 -0.405
-0.63200003 2.1570001 -0.403
-0.63200003 2.1559999 -0.40000001
-0.63200003 2.1570001 -0.398
-0.63200003 2.1589999 -0.396
-0.63300002 2.161 -0.39399999
-0.63300002 2.1619999 -0.39199999
-0.634 2.164 -0.38999999
-0.634 2.1659999 -0.389
-0.63499999 2.1689999 -0.38699999
-0.63599998 2.1730001 -0.38600001
-0.597 2.0320001 -0.505
-0.59600002 2.0280001 -0.50199997
-0.59600002 2.0280001 -0.49900001
-0.59600002 2.03 -0.498
-0.59600002 2.0320001 -0.49599999
-0.59600002 2.033 -0.49399999
-0.597 2.0339999 -0.49200001
-0.597 2.0350001 -0.49000001
-0.597 2.036 -0.48800001
-0.597 2.036 -0.486
-0.59799999 2.039 -0.48500001
-0.60000002 2.0450001 -0.484
-0.602 2.0539999 -0.484
-0.60500002 2.0650001 -0.484
-0.61000001 2.0880001 -0.43799999
-0.60900003 2.0840001 -0.435
-0.60799998 2.082 -0.433
-0.60799998 2.082 -0.43000001
-0.60799998 2.082 -0.428
-0.60799998 2.082 -0.426
-0.60900003 2.0840001 -0.42399999
-0.61000001 2.0880001 -0.42300001
-0.611 2.0929999 -0.421
-0.61199999 2.098 -0.41999999
-0.61299998 2.102 -0.419
-0.61400002 2.105 -0.41800001
-0.61500001 2.1110001 -0.41600001
-0.61799997 2.1199999 -0.41600001
-0.62 2.1289999 -0.41499999
-0.62400001 2.1400001 -0.41499999
-0.625 2.1459999 -0.414
-0.62599999 2.1459999 -0.412
-0.62599999 2.148 -0.41
-0.62699997 2.151 -0.40900001
-0.62800002 2.154 -0.40700001
-0.62900001 2.158 -0.405
-0.62900001 2.1589999 -0.403
-0.62900001 2.158 -0.40000001
-0.62800002 2.1570001 -0.398
-0.62800002 2.1589999 -0.396
-0.62900001 2.1600001 -0.39399999
-0.62900001 2.161 -0.39199999
-0.63 2.1630001 -0.38999999
-0.63 2.164 -0.38800001
-0.63099998 2.1659999 -0.38600001
-0.63099998 2.1689999 -0.384
-0.59500003 2.039 -0.50599998
-0.59399998 2.033 -0.50300002
-0.59299999 2.0309999 -0.5
-0.59299999 2.0320001 -0.498
-0.59299999 2.033 -0.49599999
-0.59299999 2.0320001 -0.49399999
-0.59299999 2.033 -0.49200001
-0.59299999 2.0339999 -0.49000001
-0.59399998 2.0350001 -0.48800001
-0.59399998 2.0350001 -0.486
-0.59399998 2.0380001 -0.48500001
-0.59600002 2.0450001 -0.484
-0.61000001 2.095 -0.47799999
-0.61000001 2.096 -0.47600001
-0.60699999 2.0899999 -0.43900001
-0.60600001 2.0880001 -0.43599999
-0.60600001 2.0869999 -0.43399999
-0.60600001 2.0880001 -0.43099999
-0.60699999 2.089 -0.42899999
-0.60699999 2.0899999 -0.42699999
-0.60699999 2.0929999 -0.426
-0.60900003 2.099 -0.42500001
-0.611 2.1059999 -0.42399999
-0.61299998 2.1140001 -0.42399999
-0.61500001 2.1210001 -0.42300001
-0.616 2.125 -0.421
-0.61799997 2.132 -0.41999999
-0.62099999 2.141 -0.41999999
-0.62300003 2.1500001 -0.419
-0.625 2.158 -0.419
-0.62599999 2.1600001 -0.417
-0.62400001 2.154 -0.41299999
-0.62300003 2.152 -0.41100001
-0.62300003 2.152 -0.40799999
-0.62400001 2.1530001 -0.40599999
-0.62400001 2.1559999 -0.40400001
-0.625 2.1570001 -0.40200001
-0.62400001 2.1559999 -0.40000001
-0.62400001 2.1559999 -0.398
-0.62400001 2.1570001 -0.39500001
-0.625 2.158 -0.39300001
-0.625 2.1600001 -0.39199999
-0.62599999 2.1619999 -0.38999999
-0.62599999 2.164 -0.38800001
-0.62599999 2.164 -0.38600001
-0.62599999 2.1619999 -0.38299999
-0.59299999 2.0420001 -0.50700003
-0.59100002 2.036 -0.50300002
-0.58999997 2.033 -0.5
-0.58999997 2.0339999 -0.498
-0.58999997 2.0339999 -0.49599999
-0.58999997 2.033 -0.49399999
-0.58999997 2.033 -0.49200001
-0.58999997 2.0339999 -0.49000001
-0.58999997 2.0350001 -0.48800001
-0.58999997 2.0350001 -0.486
-0.59100002 2.039 -0.48500001
-0.59299999 2.0450001 -0.484
-0.653 2.2539999 -0.51599997
-0.65499997 2.2620001 -0.51599997
-0.65499997 2.2620001 -0.51300001
-0.65200001 2.2539999 -0.509
-0.56800002 1.964 -0.442
-0.60500002 2.095 -0.43900001
-0.60500002 2.0940001 -0.43700001
-0.60500002 2.095 -0.435
-0.60500002 2.096 -0.433
-0.60500002 2.098 -0.43099999
-0.60600001 2.102 -0.43000001
-0.60799998 2.1070001 -0.42899999
-0.61000001 2.115 -0.428
-0.61199999 2.1229999 -0.42699999
-0.61500001 2.1329999 -0.42699999
-0.616 2.1389999 -0.426
-0.61699998 2.142 -0.42399999
-0.61900002 2.1470001 -0.42300001
-0.62099999 2.1559999 -0.42300001
-0.62300003 2.1619999 -0.42199999
-0.62400001 2.1659999 -0.41999999
-0.62300003 2.164 -0.41800001
-0.62099999 2.1559999 -0.414
-0.62 2.151 -0.41
-0.62 2.151 -0.40799999
-0.62 2.152 -0.40599999
-0.62 2.154 -0.40400001
-0.62 2.155 -0.40200001
-0.62 2.154 -0.40000001
-0.62 2.154 -0.39700001
-0.62 2.155 -0.39500001
-0.62 2.1570001 -0.39300001
-0.62199998 2.161 -0.39199999
-0.62199998 2.164 -0.38999999
-0.62300003 2.1659999 -0.38800001
-0.546 1.895 -0.338
-0.58899999 2.0420001 -0.50700003
-0.588 2.0369999 -0.50400001
-0.58700001 2.0350001 -0.50099999
-0.58700001 2.0350001 -0.49900001
-0.58700001 2.0350001 -0.49700001
-0.58600003 2.033 -0.49399999
-0.58600003 2.033 -0.49200001
-0.58600003 2.0339999 -0.49000001
-0.58700001 2.0350001 -0.48800001
-0.58700001 2.036 -0.486
-0.588 2.04 -0.48500001
-0.58999997 2.0469999 -0.484
-0.597 2.076 -0.46799999
-0.59500003 2.0680001 -0.465
-0.60399997 2.1029999 -0.44100001
-0.60399997 2.105 -0.43900001
-0.60399997 2.1070001 -0.43700001
-0.60500002 2.109 -0.43599999
-0.60600001 2.1129999 -0.43399999
-0.60699999 2.1170001 -0.433
-0.60900003 2.125 -0.43200001
-0.61199999 2.135 -0.43200001
-0.61400002 2.1429999 -0.43099999
-0.61500001 2.1489999 -0.43000001
-0.616 2.152 -0.428
-0.61699998 2.1530001 -0.42699999
-0.61799997 2.1570001 -0.42500001
-0.62 2.164 -0.42399999
-0.62099999 2.1670001 -0.42300001
-0.62099999 2.168 -0.41999999
-0.62 2.164 -0.417
-0.61699998 2.155 -0.41299999
-0.616 2.151 -0.41
-0.616 2.151 -0.40799999
-0.616 2.152 -0.40599999
-0.616 2.154 -0.40400001
-0.616 2.154 -0.40200001
-0.616 2.154 -0.39899999
-0.616 2.154 -0.39700001
-0.616 2.154 -0.39500001
-0.61699998 2.1570001 -0.39300001
-0.61799997 2.164 -0.39199999
-0.57300001 2.0050001 -0.361
-0.58600003 2.0420001 -0.50700003
-0.58499998 2.0380001 -0.50400001
-0.58399999 2.036 -0.50099999
-0.583 2.0350001 -0.498
-0.583 2.0350001 -0.49599999
-0.583 2.0350001 -0.49399999
-0.583 2.0339999 -0.49200001
-0.583 2.0339999 -0.48899999
-0.583 2.0350001 -0.48699999
-0.583 2.0380001 -0.486
-0.58499998 2.043 -0.48500001
-0.58700001 2.049 -0.484
-0.58999997 2.063 -0.48500001
-0.59600002 2.0829999 -0.48800001
-0.602 2.1129999 -0.44299999
-0.60299999 2.1170001 -0.442
-0.60500002 2.1229999 -0.44100001
-0.60699999 2.1289999 -0.44
-0.60799998 2.1340001 -0.43900001
-0.60900003 2.138 -0.43700001
-0.611 2.1459999 -0.43599999
-0.61500001 2.158 -0.43599999
-0.616 2.1619999 -0.435
-0.61500001 2.158 -0.43200001
-0.61400002 2.1570001 -0.43000001
-0.61500001 2.161 -0.428
-0.616 2.1630001 -0.426
-0.616 2.1659999 -0.42399999
-0.61699998 2.168 -0.42199999
-0.61699998 2.1689999 -0.41999999
-0.616 2.1659999 -0.417
-0.61400002 2.158 -0.414
-0.61299998 2.155 -0.41100001
-0.61299998 2.155 -0.40799999
-0.61299998 2.154 -0.40599999
-0.61299998 2.154 -0.40400001
-0.61299998 2.154 -0.40200001
-0.61299998 2.155 -0.39899999
-0.61299998 2.155 -0.39700001
-0.61299998 2.155 -0.39500001
-0.61400002 2.1589999 -0.39399999
-0.616 2.1670001 -0.39300001
-0.58499998 2.0480001 -0.53899997
-0.61799997 2.1630001 -0.56699997
-0.963 3.378 -0.86199999
-0.963 3.378 -0.86199999
-0.542 1.904 -0.47600001
-0.56999999 2.0009999 -0.49900001
-0.58399999 2.0480001 -0.50800002
-0.583 2.0450001 -0.505
-0.58200002 2.0420001 -0.50199997
-0.58099997 2.04 -0.49900001
-0.58099997 2.04 -0.49700001
-0.58099997 2.04 -0.495
-0.58099997 2.04 -0.493
-0.58099997 2.04 -0.491
-0.58099997 2.0409999 -0.48899999
-0.58099997 2.043 -0.48699999
-0.58200002 2.0469999 -0.486
-0.58399999 2.0539999 -0.48500001
-0.588 2.066 -0.486
-0.59200001 2.082 -0.48699999
-0.53399998 1.885 -0.40700001
-0.53600001 1.89 -0.40599999
-0.537 1.893 -0.405
-0.537 1.895 -0.403
-0.55299997 1.952 -0.41299999
-0.58399999 2.063 -0.43399999
-0.60100001 2.1210001 -0.44400001
-0.60299999 2.1270001 -0.44299999
-0.60500002 2.1359999 -0.44299999
-0.60799998 2.1459999 -0.44299999
-0.61000001 2.1530001 -0.442
-0.611 2.1570001 -0.44100001
-0.61299998 2.1630001 -0.44
-0.61400002 2.1700001 -0.43799999
-0.61500001 2.1719999 -0.43700001
-0.61400002 2.171 -0.43399999
-0.61400002 2.171 -0.43200001
-0.61400002 2.171 -0.43000001
-0.61400002 2.171 -0.428
-0.61400002 2.1700001 -0.42500001
-0.61400002 2.1700001 -0.42300001
-0.61400002 2.1719999 -0.421
-0.61400002 2.1700001 -0.41800001
-0.61199999 2.164 -0.41499999
-0.611 2.161 -0.412
-0.611 2.1589999 -0.40900001
-0.61000001 2.158 -0.40700001
-0.61000001 2.158 -0.40400001
-0.61000001 2.158 -0.40200001
-0.61000001 2.1589999 -0.40000001
-0.61000001 2.1589999 -0.398
-0.61000001 2.158 -0.39500001
-0.611 2.1619999 -0.39399999
-0.61299998 2.1700001 -0.39300001
-0.58499998 2.062 -0.51599997
-0.583 2.056 -0.51200002
-0.58200002 2.053 -0.509
-0.58099997 2.0510001 -0.50700003
-0.57999998 2.0480001 -0.50400001
-0.579 2.0450001 -0.5
-0.579 2.0439999 -0.498
-0.579 2.0439999 -0.49599999
-0.579 2.0450001 -0.49399999
-0.579 2.046 -0.49200001
-0.579 2.046 -0.49000001
-0.579 2.0480001 -0.48800001
-0.57999998 2.0510001 -0.486
-0.58200002 2.056 -0.48500001
-0.58399999 2.0650001 -0.48500001
-0.58700001 2.0780001 -0.486
-0.58999997 2.0910001 -0.45100001
-0.59200001 2.098 -0.45100001
-0.59299999 2.1029999 -0.449
-0.59399998 2.1059999 -0.44800001
-0.59500003 2.1110001 -0.447
-0.59600002 2.118 -0.44600001
-0.59899998 2.1259999 -0.44600001
-0.602 2.1359999 -0.44499999
-0.60500002 2.148 -0.44499999
-0.60799998 2.161 -0.44600001
-0.61000001 2.1670001 -0.44499999
-0.61000001 2.168 -0.44299999
-0.611 2.171 -0.44100001
-0.61199999 2.1760001 -0.43900001
-0.61199999 2.177 -0.43700001
-0.61199999 2.174 -0.43399999
-0.611 2.1719999 -0.43200001
-0.611 2.1730001 -0.43000001
-0.611 2.1730001 -0.428
-0.61000001 2.171 -0.42500001
-0.61000001 2.1719999 -0.42300001
-0.611 2.174 -0.421
-0.61000001 2.1719999 -0.41800001
-0.60900003 2.1670001 -0.41499999
-0.60799998 2.164 -0.412
-0.60799998 2.164 -0.41
-0.60799998 2.1630001 -0.40700001
-0.60699999 2.161 -0.405
-0.60699999 2.1600001 -0.403
-0.60699999 2.1589999 -0.40000001
-0.60600001 2.158 -0.398
-0.60600001 2.158 -0.39500001
-0.53899997 1.9119999 -0.5
-0.54000002 1.915 -0.5
-0.58200002 2.0639999 -0.51599997
-0.57999998 2.0580001 -0.51300001
-0.57800001 2.0550001 -0.50999999
-0.57800001 2.0539999 -0.50700003
-0.57800001 2.0539999 -0.505
-0.57800001 2.0539999 -0.50300002
-0.579 2.056 -0.50099999
-0.579 2.0580001 -0.49900001
-0.579 2.059 -0.49700001
-0.579 2.059 -0.495
-0.579 2.059 -0.493
-0.579 2.0580001 -0.49000001
-0.579 2.059 -0.48800001
-0.57999998 2.063 -0.48699999
-0.58099997 2.0680001 -0.486
-0.583 2.075 -0.48500001
-0.58600003 2.0899999 -0.45100001
-0.588 2.098 -0.44999999
-0.58899999 2.1029999 -0.449
-0.58999997 2.1059999 -0.44800001
-0.59200001 2.1110001 -0.447
-0.59399998 2.119 -0.44600001
-0.53299999 1.903 -0.39199999
-0.61000001 2.178 -0.447
-0.60900003 2.1760001 -0.44400001
-0.60900003 2.175 -0.442
-0.60900003 2.178 -0.44
-0.60900003 2.178 -0.43799999
-0.60799998 2.174 -0.43399999
-0.60799998 2.1730001 -0.43200001
-0.60799998 2.174 -0.43000001
-0.60699999 2.1730001 -0.428
-0.60699999 2.171 -0.42500001
-0.60699999 2.1719999 -0.42300001
-0.60799998 2.175 -0.421
-0.60699999 2.174 -0.419
-0.60600001 2.1700001 -0.41600001
-0.60600001 2.168 -0.41299999
-0.60600001 2.1689999 -0.41100001
-0.60500002 2.168 -0.40799999
-0.60399997 2.164 -0.405
-0.60399997 2.1630001 -0.403
-0.60399997 2.1619999 -0.40099999
-0.60299999 2.161 -0.398
-0.60299999 2.1600001 -0.396
-0.60299999 2.148 -0.565
-0.60600001 2.1589999 -0.565
-0.56199998 2.0039999 -0.523
-0.56099999 2.003 -0.51599997
-0.60299999 2.154 -0.55199999
-0.59799999 2.1370001 -0.546
-0.59299999 2.118 -0.53899997
-0.588 2.0969999 -0.53100002
-0.58399999 2.0829999 -0.52499998
-0.58099997 2.0739999 -0.52100003
-0.53600001 1.9119999 -0.479
-0.53899997 1.926 -0.463
-0.58200002 2.082 -0.498
-0.57999998 2.075 -0.49399999
-0.579 2.072 -0.491
-0.579 2.072 -0.48899999
-0.579 2.073 -0.48699999
-0.579 2.0739999 -0.48500001
-0.57999998 2.0780001 -0.484
-0.58200002 2.0840001 -0.48300001
-0.59100002 2.122 -0.46700001
-0.58600003 2.1029999 -0.46000001
-0.58200002 2.092 -0.456
-0.58200002 2.089 -0.45300001
-0.58200002 2.0910001 -0.45100001
-0.58399999 2.098 -0.44999999
-0.58600003 2.1029999 -0.449
-0.58600003 2.1059999 -0.44800001
-0.588 2.112 -0.447
-0.59100002 2.1210001 -0.44600001
-0.56099999 2.0150001 -0.41100001
-0.60500002 2.177 -0.442
-0.60500002 2.177 -0.44
-0.60399997 2.175 -0.43700001
-0.60299999 2.1719999 -0.43399999
-0.60299999 2.171 -0.43200001
-0.60299999 2.1719999 -0.43000001
-0.60299999 2.1719999 -0.428
-0.60299999 2.171 -0.42500001
-0.60299999 2.1719999 -0.42300001
-0.60399997 2.1760001 -0.421
-0.60399997 2.1760001 -0.419
-0.60399997 2.174 -0.417
-0.60299999 2.1730001 -0.414
-0.60299999 2.1730001 -0.412
-0.60299999 2.1719999 -0.40900001
-0.602 2.1689999 -0.40599999
-0.60100001 2.1670001 -0.403
-0.60100001 2.1670001 -0.40099999
-0.55599999 2.0039999 -0.36899999
-0.58999997 2.1159999 -0.56400001
-0.58999997 2.1140001 -0.56099999
-0.58899999 2.112 -0.55800003
-0.58999997 2.1159999 -0.55699998
-0.59299999 2.1270001 -0.55699998
-0.59399998 2.132 -0.54699999
-0.59100002 2.1240001 -0.54299998
-0.588 2.112 -0.53799999
-0.58399999 2.098 -0.53100002
-0.58099997 2.0880001 -0.52700001
-0.57999998 2.0829999 -0.523
-0.54299998 1.9529999 -0.46700001
-0.56800002 2.0450001 -0.48699999
-0.579 2.0869999 -0.495
-0.57800001 2.0799999 -0.491
-0.57599998 2.076 -0.48800001
-0.57599998 2.0739999 -0.48500001
-0.57599998 2.0739999 -0.48300001
-0.57599998 2.076 -0.48100001
-0.57700002 2.0810001 -0.47999999
-0.579 2.089 -0.47999999
-0.58200002 2.0999999 -0.47999999
-0.58600003 2.1140001 -0.47999999
-0.57499999 2.073 -0.46900001
-0.54900002 1.977 -0.44600001
-0.58700001 2.119 -0.46599999
-0.58200002 2.102 -0.46000001
-0.579 2.0929999 -0.456
-0.57800001 2.0899999 -0.45300001
-0.579 2.0910001 -0.45100001
-0.57999998 2.0969999 -0.44999999
-0.58200002 2.102 -0.449
-0.583 2.1070001 -0.44800001
-0.58499998 2.1140001 -0.447
-0.58700001 2.122 -0.44600001
-0.60100001 2.1730001 -0.44100001
-0.60000002 2.171 -0.43799999
-0.59899998 2.1689999 -0.43599999
-0.59799999 2.1659999 -0.433
-0.59799999 2.1659999 -0.43099999
-0.59799999 2.168 -0.42899999
-0.59899998 2.1700001 -0.42699999
-0.59899998 2.171 -0.42500001
-0.60000002 2.174 -0.42300001
-0.60100001 2.177 -0.42199999
-0.60100001 2.1789999 -0.41999999
-0.60100001 2.178 -0.417
-0.60100001 2.178 -0.41499999
-0.60100001 2.178 -0.412
-0.60000002 2.177 -0.41
-0.59899998 2.174 -0.40700001
-0.59899998 2.1719999 -0.40400001
-0.59899998 2.1719999 -0.40200001
-0.58200002 2.0999999 -0.55900002
-0.58099997 2.095 -0.55500001
-0.57999998 2.0940001 -0.55299997
-0.58099997 2.0969999 -0.551
-0.583 2.1040001 -0.551
-0.56800002 2.053 -0.53600001
-0.53899997 1.946 -0.50599998
-0.53899997 1.946 -0.50300002
-0.56800002 2.0550001 -0.52899998
-0.58399999 2.1099999 -0.54100001
-0.58399999 2.1110001 -0.53899997
-0.583 2.108 -0.53600001
-0.58200002 2.1029999 -0.53299999
-0.58099997 2.0999999 -0.52899998
-0.57999998 2.099 -0.52700001
-0.57999998 2.1010001 -0.498
-0.57599998 2.0869999 -0.493
-0.57300001 2.0780001 -0.48800001
-0.57200003 2.0739999 -0.48500001
-0.57200003 2.072 -0.48199999
-0.57200003 2.072 -0.47999999
-0.57200003 2.075 -0.47799999
-0.57300001 2.0799999 -0.477
-0.57599998 2.0899999 -0.477
-0.57999998 2.105 -0.47799999
-0.54400003 1.979 -0.43900001
-0.57099998 2.075 -0.458
-0.583 2.1159999 -0.46599999
-0.57800001 2.102 -0.46000001
-0.57599998 2.0940001 -0.456
-0.57499999 2.0910001 -0.45300001
-0.57499999 2.0910001 -0.45100001
-0.57499999 2.0929999 -0.449
-0.57700002 2.099 -0.44800001
-0.57999998 2.109 -0.44800001
-0.58200002 2.115 -0.447
-0.58200002 2.118 -0.44499999
-0.59399998 2.1630001 -0.43900001
-0.59299999 2.1619999 -0.43599999
-0.59299999 2.161 -0.43399999
-0.59299999 2.161 -0.43200001
-0.59399998 2.164 -0.43000001
-0.59600002 2.1700001 -0.42899999
-0.59600002 2.1719999 -0.42699999
-0.59600002 2.1719999 -0.42500001
-0.59600002 2.174 -0.42300001
-0.597 2.177 -0.421
-0.597 2.1789999 -0.419
-0.597 2.1789999 -0.417
-0.597 2.1789999 -0.41499999
-0.597 2.1800001 -0.41299999
-0.597 2.1789999 -0.41
-0.597 2.177 -0.40700001
-0.59600002 2.1760001 -0.405
-0.59600002 2.1760001 -0.403
-0.57599998 2.0899999 -0.55599999
-0.57300001 2.082 -0.55199999
-0.57200003 2.079 -0.54900002
-0.57200003 2.079 -0.54699999
-0.57300001 2.0810001 -0.54500002
-0.57300001 2.0829999 -0.54299998
-0.574 2.085 -0.54100001
-0.574 2.0869999 -0.53899997
-0.574 2.0880001 -0.53799999
-0.57499999 2.092 -0.53600001
-0.57700002 2.0969999 -0.53600001
-0.57800001 2.102 -0.53399998
-0.579 2.1070001 -0.53299999
-0.56699997 2.069 -0.48100001
-0.56699997 2.0699999 -0.479
-0.56699997 2.072 -0.47799999
-0.56800002 2.076 -0.47600001
-0.57099998 2.085 -0.47600001
-0.57499999 2.099 -0.477
-0.53399998 1.951 -0.442
-0.54000002 1.974 -0.44
-0.583 2.1329999 -0.47400001
-0.58099997 2.125 -0.46900001
-0.579 2.1159999 -0.465
-0.57599998 2.1070001 -0.461
-0.574 2.0999999 -0.45699999
-0.57300001 2.096 -0.454
-0.57300001 2.095 -0.45199999
-0.57300001 2.096 -0.44999999
-0.574 2.099 -0.44800001
-0.57499999 2.1029999 -0.447
-0.57599998 2.108 -0.44499999
-0.57800001 2.1140001 -0.44400001
-0.58600003 2.148 -0.43599999
-0.58600003 2.1489999 -0.43399999
-0.58700001 2.152 -0.43200001
-0.588 2.155 -0.43000001
-0.588 2.158 -0.42899999
-0.58899999 2.1619999 -0.42699999
-0.58999997 2.165 -0.426
-0.58999997 2.1659999 -0.42399999
-0.59100002 2.1689999 -0.42199999
-0.59200001 2.174 -0.41999999
-0.59299999 2.177 -0.41800001
-0.59299999 2.1789999 -0.417
-0.59399998 2.1800001 -0.41499999
-0.59399998 2.1819999 -0.41299999
-0.59399998 2.181 -0.41
-0.59299999 2.178 -0.40799999
-0.59299999 2.177 -0.405
-0.59299999 2.178 -0.403
-0.56800002 2.075 -0.55000001
-0.56599998 2.0699999 -0.546
-0.56599998 2.0680001 -0.54299998
-0.56599998 2.0680001 -0.54100001
-0.56599998 2.069 -0.53899997
-0.56699997 2.0710001 -0.537
-0.56699997 2.0739999 -0.53600001
-0.56699997 2.076 -0.53399998
-0.56900001 2.0810001 -0.53299999
-0.57099998 2.089 -0.53299999
-0.574 2.1010001 -0.53399998
-0.57800001 2.115 -0.53500003
-0.53299999 1.957 -0.47400001
-0.56300002 2.0710001 -0.48100001
-0.56300002 2.0699999 -0.479
