ply
format ascii 1.0
comment PCL generated
element vertex 1670
property float x
property float y
property float z
element face 0
element camera 0
property float view_px
property float view_py
property float view_pz
property float x_axisx
property float x_axisy
property float x_axisz
property float y_axisx
property float y_axisy
property float y_axisz
property float z_axisx
property float z_axisy
property float z_axisz
property float focal
property float scalex
property float scaley
property float centerx
property float centery
property int viewportx
property int viewporty
property float k1
property float k2
end_header
-0.43599999 2.2620001 -0.67699999
-0.43700001 2.267 -0.67699999
-0.43900001 2.273 -0.676
-0.44 2.28 -0.676
-0.44100001 2.286 -0.67500001
-0.442 2.2920001 -0.67400002
-0.442 2.296 -0.67299998
-0.44299999 2.3 -0.671
-0.44299999 2.302 -0.67000002
-0.44400001 2.306 -0.66799998
-0.44499999 2.3110001 -0.667
-0.38699999 2.02 -0.53299999
-0.38499999 2.0109999 -0.528
-0.384 2.003 -0.52399999
-0.38299999 1.997 -0.52100003
-0.382 1.993 -0.51800001
-0.38100001 1.99 -0.514
-0.38 1.987 -0.51099998
-0.37900001 1.982 -0.50800002
-0.37799999 1.978 -0.505
-0.37799999 1.977 -0.50199997
-0.37799999 1.975 -0.5
-0.37799999 1.974 -0.49700001
-0.377 1.973 -0.495
-0.377 1.971 -0.49200001
-0.37599999 1.969 -0.49000001
-0.37599999 1.965 -0.48699999
-0.375 1.9630001 -0.484
-0.375 1.96 -0.48199999
-0.37400001 1.959 -0.479
-0.37400001 1.9579999 -0.47600001
-0.373 1.956 -0.47400001
-0.373 1.955 -0.472
-0.373 1.955 -0.47
-0.373 1.956 -0.46799999
-0.373 1.956 -0.46599999
-0.373 1.955 -0.46399999
-0.373 1.954 -0.46200001
-0.373 1.9529999 -0.45899999
-0.37200001 1.951 -0.45699999
-0.37200001 1.949 -0.454
-0.37099999 1.947 -0.45199999
-0.37099999 1.946 -0.449
-0.37 1.9450001 -0.447
-0.37 1.9450001 -0.44499999
-0.37 1.944 -0.44299999
-0.37 1.941 -0.44
-0.36899999 1.9400001 -0.43799999
-0.36899999 1.9400001 -0.435
-0.36899999 1.9400001 -0.433
-0.36899999 1.939 -0.43099999
-0.36899999 1.939 -0.42899999
-0.36899999 1.941 -0.42699999
-0.36899999 1.9400001 -0.42500001
-0.36899999 1.939 -0.42300001
-0.36899999 1.939 -0.421
-0.36899999 1.9400001 -0.419
-0.36899999 1.9400001 -0.417
-0.36899999 1.937 -0.414
-0.368 1.937 -0.412
-0.368 1.937 -0.41100001
-0.368 1.937 -0.40900001
-0.368 1.936 -0.40599999
-0.36700001 1.934 -0.40400001
-0.36700001 1.934 -0.40099999
-0.36700001 1.933 -0.39899999
-0.36700001 1.934 -0.398
-0.36700001 1.9349999 -0.396
-0.36700001 1.936 -0.39399999
-0.41 2.122 -0.73900002
-0.41 2.122 -0.73699999
-0.40900001 2.122 -0.73400003
-0.40900001 2.122 -0.73199999
-0.40900001 2.122 -0.73000002
-0.40900001 2.122 -0.727
-0.40900001 2.1229999 -0.72500002
-0.37900001 1.966 -0.66900003
-0.42199999 2.194 -0.70300001
-0.41999999 2.1889999 -0.699
-0.419 2.184 -0.69499999
-0.419 2.181 -0.69199997
-0.41800001 2.178 -0.68800002
-0.417 2.175 -0.685
-0.41800001 2.1760001 -0.68199998
-0.41800001 2.181 -0.68199998
-0.41999999 2.1919999 -0.68300003
-0.42399999 2.21 -0.68599999
-0.426 2.224 -0.68800002
-0.428 2.234 -0.68800002
-0.42899999 2.24 -0.68800002
-0.42899999 2.2420001 -0.68599999
-0.43000001 2.2449999 -0.68400002
-0.43099999 2.2490001 -0.68300003
-0.43099999 2.253 -0.68199998
-0.43200001 2.257 -0.68099999
-0.433 2.2620001 -0.68000001
-0.433 2.266 -0.67799997
-0.43399999 2.2720001 -0.67799997
-0.43599999 2.279 -0.67699999
-0.43700001 2.2850001 -0.67699999
-0.43700001 2.289 -0.676
-0.43799999 2.2950001 -0.67500001
-0.44 2.302 -0.67400002
-0.36399999 1.902 -0.55599999
-0.38299999 2.013 -0.53100002
-0.382 2.0079999 -0.528
-0.38100001 2.003 -0.52399999
-0.38 1.998 -0.52100003
-0.37900001 1.994 -0.51800001
-0.37799999 1.9910001 -0.514
-0.377 1.987 -0.51099998
-0.37599999 1.982 -0.50800002
-0.375 1.979 -0.505
-0.375 1.977 -0.50199997
-0.375 1.976 -0.5
-0.37400001 1.973 -0.49700001
-0.37400001 1.971 -0.495
-0.373 1.97 -0.49200001
-0.373 1.9680001 -0.49000001
-0.37200001 1.966 -0.48699999
-0.37200001 1.9630001 -0.484
-0.37099999 1.959 -0.48199999
-0.37099999 1.957 -0.479
-0.37 1.956 -0.47600001
-0.37 1.955 -0.47400001
-0.37 1.955 -0.472
-0.37 1.954 -0.47
-0.37 1.954 -0.46700001
-0.37 1.9529999 -0.465
-0.37 1.9529999 -0.463
-0.36899999 1.952 -0.461
-0.36899999 1.952 -0.45899999
-0.36899999 1.951 -0.45699999
-0.368 1.948 -0.454
-0.368 1.947 -0.45100001
-0.368 1.946 -0.449
-0.368 1.9450001 -0.447
-0.36700001 1.944 -0.44400001
-0.36700001 1.942 -0.442
-0.366 1.9400001 -0.44
-0.366 1.939 -0.43700001
-0.366 1.939 -0.435
-0.366 1.939 -0.433
-0.366 1.938 -0.43099999
-0.366 1.938 -0.42899999
-0.366 1.939 -0.42699999
-0.366 1.939 -0.42500001
-0.366 1.939 -0.42300001
-0.366 1.939 -0.421
-0.366 1.941 -0.419
-0.366 1.941 -0.417
-0.36500001 1.939 -0.41499999
-0.36500001 1.938 -0.41299999
-0.36500001 1.938 -0.41
-0.36500001 1.937 -0.40799999
-0.36399999 1.9349999 -0.40599999
-0.36399999 1.933 -0.403
-0.36399999 1.933 -0.40099999
-0.36399999 1.933 -0.39899999
-0.36399999 1.934 -0.39700001
-0.36399999 1.934 -0.39500001
-0.36399999 1.933 -0.39300001
-0.40700001 2.125 -0.74000001
-0.40700001 2.125 -0.73699999
-0.40700001 2.125 -0.73500001
-0.40599999 2.125 -0.73299998
-0.40599999 2.125 -0.73000002
-0.40599999 2.125 -0.72799999
-0.40599999 2.1259999 -0.72600001
-0.366 1.92 -0.61699998
-0.417 2.191 -0.70200002
-0.41600001 2.1860001 -0.69800001
-0.41499999 2.1819999 -0.69400001
-0.41499999 2.1789999 -0.69099998
-0.414 2.177 -0.68800002
-0.414 2.1760001 -0.685
-0.41499999 2.1800001 -0.68300003
-0.41600001 2.187 -0.68300003
-0.41800001 2.1989999 -0.68400002
-0.421 2.2160001 -0.68800002
-0.42300001 2.2279999 -0.68900001
-0.42500001 2.2349999 -0.68900001
-0.426 2.24 -0.68800002
-0.426 2.243 -0.68599999
-0.426 2.2460001 -0.68400002
-0.42699999 2.25 -0.68400002
-0.428 2.2550001 -0.68199998
-0.42899999 2.26 -0.68199998
-0.43000001 2.2650001 -0.68000001
-0.43000001 2.27 -0.68000001
-0.43200001 2.276 -0.67900002
-0.43200001 2.2820001 -0.67799997
-0.433 2.2880001 -0.67699999
-0.43399999 2.2909999 -0.676
-0.435 2.296 -0.67500001
-0.43599999 2.3039999 -0.67500001
-0.37900001 2.0109999 -0.52999997
-0.37799999 2.0079999 -0.528
-0.37799999 2.0039999 -0.52399999
-0.37599999 2 -0.52100003
-0.37599999 1.9960001 -0.51800001
-0.37400001 1.9910001 -0.51499999
-0.37400001 1.987 -0.51099998
-0.37200001 1.982 -0.50800002
-0.37200001 1.979 -0.505
-0.37200001 1.977 -0.50199997
-0.37099999 1.974 -0.5
-0.37099999 1.971 -0.49599999
-0.37 1.969 -0.49399999
-0.37 1.967 -0.49200001
-0.36899999 1.966 -0.48899999
-0.36899999 1.964 -0.48699999
-0.368 1.962 -0.484
-0.368 1.9579999 -0.48100001
-0.36700001 1.956 -0.47799999
-0.36700001 1.955 -0.47600001
-0.36700001 1.954 -0.47400001
-0.36700001 1.954 -0.472
-0.366 1.954 -0.46900001
-0.366 1.954 -0.46700001
-0.366 1.9529999 -0.465
-0.366 1.951 -0.463
-0.366 1.95 -0.46000001
-0.366 1.95 -0.458
-0.36500001 1.95 -0.456
-0.36500001 1.948 -0.45300001
-0.36500001 1.947 -0.45100001
-0.36500001 1.9450001 -0.449
-0.36399999 1.943 -0.44600001
-0.36399999 1.942 -0.44400001
-0.36300001 1.941 -0.44100001
-0.36300001 1.9400001 -0.43900001
-0.36300001 1.9400001 -0.43700001
-0.36300001 1.9400001 -0.435
-0.36300001 1.939 -0.433
-0.36199999 1.938 -0.43099999
-0.36199999 1.938 -0.42899999
-0.36300001 1.939 -0.42699999
-0.36300001 1.939 -0.42500001
-0.36300001 1.938 -0.42300001
-0.36300001 1.939 -0.421
-0.36300001 1.9400001 -0.419
-0.36300001 1.9400001 -0.417
-0.36199999 1.9400001 -0.41499999
-0.36199999 1.939 -0.41299999
-0.36199999 1.938 -0.41
-0.36199999 1.937 -0.40799999
-0.361 1.934 -0.405
-0.361 1.933 -0.403
-0.361 1.933 -0.40099999
-0.361 1.933 -0.39899999
-0.361 1.934 -0.39700001
-0.361 1.934 -0.39500001
-0.361 1.933 -0.39300001
-0.40400001 2.128 -0.74000001
-0.40400001 2.128 -0.73799998
-0.40400001 2.128 -0.736
-0.40400001 2.128 -0.73400003
-0.403 2.1270001 -0.73100001
-0.403 2.128 -0.72899997
-0.403 2.128 -0.72600001
-0.414 2.1960001 -0.708
-0.414 2.191 -0.704
-0.41299999 2.187 -0.69999999
-0.412 2.1819999 -0.69599998
-0.41100001 2.1789999 -0.69300002
-0.41100001 2.177 -0.69
-0.41100001 2.177 -0.68699998
-0.41100001 2.1789999 -0.68599999
-0.412 2.1849999 -0.685
-0.414 2.194 -0.685
-0.41600001 2.2049999 -0.68699998
-0.41800001 2.2190001 -0.68900001
-0.419 2.23 -0.68900001
-0.421 2.2360001 -0.68900001
-0.42199999 2.24 -0.68800002
-0.42199999 2.244 -0.68599999
-0.42199999 2.247 -0.685
-0.42300001 2.25 -0.68400002
-0.42399999 2.2550001 -0.68300003
-0.42500001 2.2609999 -0.68199998
-0.426 2.267 -0.68099999
-0.42699999 2.2720001 -0.68000001
-0.428 2.277 -0.67900002
-0.42899999 2.2839999 -0.67799997
-0.43000001 2.2880001 -0.67699999
-0.43000001 2.2909999 -0.676
-0.43099999 2.296 -0.67500001
-0.43200001 2.3039999 -0.67500001
-0.375 2.0090001 -0.52999997
-0.37400001 2.006 -0.52700001
-0.37400001 2.003 -0.52399999
-0.373 2 -0.52100003
-0.37200001 1.9960001 -0.51800001
-0.37099999 1.99 -0.514
-0.37 1.9859999 -0.51099998
-0.36899999 1.9809999 -0.50800002
-0.368 1.978 -0.505
-0.368 1.975 -0.50199997
-0.36700001 1.972 -0.49900001
-0.36700001 1.9680001 -0.49599999
-0.366 1.966 -0.493
-0.366 1.965 -0.491
-0.36500001 1.9630001 -0.48800001
-0.36500001 1.961 -0.486
-0.36500001 1.959 -0.48300001
-0.36399999 1.9579999 -0.47999999
-0.36399999 1.956 -0.47799999
-0.36399999 1.954 -0.47499999
-0.36399999 1.9529999 -0.47299999
-0.36300001 1.952 -0.47099999
-0.36300001 1.952 -0.46900001
-0.36300001 1.9529999 -0.46700001
-0.36300001 1.952 -0.465
-0.36199999 1.95 -0.46200001
-0.36199999 1.949 -0.46000001
-0.36199999 1.948 -0.458
-0.36199999 1.948 -0.45500001
-0.36199999 1.947 -0.45300001
-0.361 1.946 -0.45100001
-0.361 1.943 -0.44800001
-0.361 1.942 -0.44600001
-0.36000001 1.9400001 -0.44299999
-0.36000001 1.9400001 -0.44100001
-0.36000001 1.9400001 -0.43900001
-0.36000001 1.9400001 -0.43700001
-0.36000001 1.9400001 -0.435
-0.36000001 1.939 -0.433
-0.359 1.938 -0.43000001
-0.359 1.938 -0.428
-0.36000001 1.939 -0.42699999
-0.36000001 1.939 -0.42500001
-0.359 1.938 -0.42199999
-0.359 1.938 -0.41999999
-0.36000001 1.939 -0.419
-0.36000001 1.9400001 -0.417
-0.359 1.939 -0.41499999
-0.359 1.938 -0.41299999
-0.359 1.938 -0.41
-0.359 1.936 -0.40799999
-0.35800001 1.934 -0.405
-0.35800001 1.933 -0.403
-0.35800001 1.933 -0.40099999
-0.35800001 1.933 -0.39899999
-0.35800001 1.933 -0.39700001
-0.35800001 1.934 -0.39500001
-0.35800001 1.934 -0.39300001
-0.40000001 2.128 -0.74000001
-0.40000001 2.128 -0.73799998
-0.40000001 2.1289999 -0.736
-0.40000001 2.1289999 -0.73400003
-0.40000001 2.1300001 -0.73199999
-0.40000001 2.1300001 -0.73000002
-0.40000001 2.131 -0.727
-0.41 2.1919999 -0.70700002
-0.40900001 2.187 -0.70300001
-0.40799999 2.1830001 -0.699
-0.40700001 2.1789999 -0.69499999
-0.40700001 2.177 -0.69199997
-0.40700001 2.177 -0.68900001
-0.40700001 2.1789999 -0.68800002
-0.40799999 2.1849999 -0.68800002
-0.41 2.1930001 -0.68800002
-0.412 2.204 -0.68900001
-0.41299999 2.2149999 -0.69
-0.41499999 2.2249999 -0.69099998
-0.41600001 2.233 -0.69099998
-0.417 2.2390001 -0.69
-0.41800001 2.243 -0.68800002
-0.41800001 2.2460001 -0.68699998
-0.419 2.2490001 -0.685
-0.419 2.2509999 -0.68400002
-0.41999999 2.256 -0.68300003
-0.421 2.263 -0.68199998
-0.42199999 2.2679999 -0.68099999
-0.42300001 2.2720001 -0.68000001
-0.42399999 2.277 -0.67900002
-0.42500001 2.283 -0.67799997
-0.41499999 2.23 -0.66000003
-0.39399999 2.1170001 -0.62400001
-0.384 2.0650001 -0.60699999
-0.38600001 2.076 -0.60799998
-0.37 2.003 -0.528
-0.37 2 -0.52499998
-0.36899999 1.998 -0.523
-0.36899999 1.9960001 -0.51999998
-0.368 1.993 -0.51700002
-0.36700001 1.988 -0.514
-0.366 1.983 -0.50999999
-0.366 1.98 -0.50700003
-0.36500001 1.977 -0.50400001
-0.36399999 1.972 -0.50099999
-0.36300001 1.969 -0.498
-0.36300001 1.967 -0.495
-0.36199999 1.965 -0.493
-0.36199999 1.962 -0.49000001
-0.36199999 1.96 -0.48800001
-0.36199999 1.959 -0.48500001
-0.361 1.9579999 -0.48300001
-0.361 1.957 -0.47999999
-0.361 1.956 -0.47799999
-0.361 1.955 -0.47600001
-0.36000001 1.954 -0.47299999
-0.36000001 1.951 -0.47
-0.36000001 1.95 -0.46799999
-0.36000001 1.951 -0.46599999
-0.359 1.95 -0.46399999
-0.359 1.949 -0.46200001
-0.359 1.948 -0.46000001
-0.359 1.947 -0.45699999
-0.35800001 1.946 -0.45500001
-0.35800001 1.9450001 -0.45199999
-0.35800001 1.944 -0.44999999
-0.35800001 1.943 -0.44800001
-0.35699999 1.942 -0.44600001
-0.35699999 1.9400001 -0.44299999
-0.35699999 1.9400001 -0.44100001
-0.35699999 1.941 -0.44
-0.35699999 1.941 -0.43799999
-0.35699999 1.939 -0.435
-0.35699999 1.939 -0.433
-0.35699999 1.9400001 -0.43099999
-0.35699999 1.9400001 -0.42899999
-0.35699999 1.939 -0.42699999
-0.35699999 1.939 -0.42500001
-0.35699999 1.9400001 -0.42300001
-0.35600001 1.9400001 -0.421
-0.35600001 1.9400001 -0.419
-0.35600001 1.939 -0.417
-0.35600001 1.937 -0.414
-0.35600001 1.936 -0.412
-0.35600001 1.936 -0.41
-0.35499999 1.9349999 -0.40799999
-0.35499999 1.934 -0.405
-0.35499999 1.932 -0.403
-0.35499999 1.932 -0.40099999
-0.35499999 1.931 -0.39899999
-0.35499999 1.932 -0.39700001
-0.35499999 1.933 -0.39500001
-0.35499999 1.933 -0.39300001
-0.396 2.128 -0.741
-0.396 2.1289999 -0.73900002
-0.396 2.1300001 -0.73699999
-0.396 2.131 -0.73500001
-0.396 2.131 -0.73199999
-0.396 2.131 -0.73000002
-0.396 2.1300001 -0.727
-0.38600001 2.0769999 -0.70700002
-0.366 1.972 -0.66900003
-0.377 2.036 -0.66000003
-0.396 2.1359999 -0.69
-0.405 2.1849999 -0.704
-0.405 2.1830001 -0.70099998
-0.40400001 2.181 -0.69800001
-0.403 2.178 -0.69499999
-0.403 2.177 -0.69199997
-0.403 2.1789999 -0.69099998
-0.40400001 2.1860001 -0.69
-0.40599999 2.197 -0.69099998
-0.40799999 2.207 -0.69199997
-0.41 2.2160001 -0.69199997
-0.41100001 2.224 -0.69199997
-0.41299999 2.2320001 -0.69199997
-0.414 2.237 -0.69099998
-0.414 2.2420001 -0.69
-0.41499999 2.2449999 -0.68900001
-0.41499999 2.247 -0.68699998
-0.41499999 2.2490001 -0.685
-0.41499999 2.2520001 -0.68400002
-0.41600001 2.256 -0.68300003
-0.41800001 2.263 -0.68199998
-0.419 2.2690001 -0.68099999
-0.419 2.2739999 -0.68000001
-0.41999999 2.2780001 -0.67900002
-0.421 2.283 -0.67799997
-0.35800001 1.952 -0.51700002
-0.36700001 2.0009999 -0.528
-0.366 1.997 -0.52499998
-0.36500001 1.995 -0.52200001
-0.36500001 1.993 -0.51899999
-0.36500001 1.99 -0.51599997
-0.36399999 1.9859999 -0.51300001
-0.36300001 1.982 -0.50999999
-0.36300001 1.979 -0.50700003
-0.36199999 1.975 -0.50400001
-0.361 1.971 -0.50099999
-0.36000001 1.969 -0.498
-0.36000001 1.967 -0.495
-0.359 1.966 -0.493
-0.359 1.9630001 -0.49000001
-0.35800001 1.961 -0.48800001
-0.35800001 1.959 -0.48500001
-0.35800001 1.957 -0.48300001
-0.35800001 1.956 -0.47999999
-0.35699999 1.955 -0.47799999
-0.35699999 1.954 -0.47499999
-0.35699999 1.9529999 -0.47299999
-0.35699999 1.952 -0.47
-0.35600001 1.951 -0.46799999
-0.35600001 1.95 -0.46599999
-0.35600001 1.949 -0.46399999
-0.35600001 1.948 -0.461
-0.35499999 1.947 -0.45899999
-0.35499999 1.946 -0.45699999
-0.35499999 1.9450001 -0.45500001
-0.35499999 1.944 -0.45199999
-0.354 1.943 -0.44999999
-0.354 1.943 -0.44800001
-0.354 1.942 -0.44600001
-0.354 1.941 -0.44299999
-0.35299999 1.941 -0.44100001
-0.35299999 1.9400001 -0.43900001
-0.354 1.941 -0.43700001
-0.354 1.942 -0.43599999
-0.354 1.942 -0.43399999
-0.354 1.9400001 -0.43099999
-0.35299999 1.939 -0.42899999
-0.35299999 1.939 -0.42699999
-0.35299999 1.939 -0.42500001
-0.35299999 1.938 -0.42199999
-0.352 1.938 -0.41999999
-0.352 1.937 -0.41800001
-0.352 1.936 -0.41600001
-0.352 1.9349999 -0.41299999
-0.352 1.934 -0.41100001
-0.352 1.9349999 -0.41
-0.35100001 1.934 -0.40799999
-0.35100001 1.933 -0.405
-0.35100001 1.932 -0.403
-0.35100001 1.933 -0.40099999
-0.35100001 1.933 -0.39899999
-0.35100001 1.933 -0.39700001
-0.35100001 1.933 -0.39500001
-0.35100001 1.933 -0.39300001
-0.39199999 2.1259999 -0.74000001
-0.39300001 2.128 -0.73799998
-0.39300001 2.1300001 -0.736
-0.39300001 2.132 -0.73500001
-0.39399999 2.135 -0.73299998
-0.39399999 2.1359999 -0.73100001
-0.39399999 2.1370001 -0.72899997
-0.39399999 2.138 -0.727
-0.39399999 2.141 -0.72600001
-0.36500001 1.984 -0.67000002
-0.40099999 2.1819999 -0.70300001
-0.40000001 2.1800001 -0.69999999
-0.40000001 2.178 -0.69700003
-0.39899999 2.1760001 -0.69400001
-0.40000001 2.178 -0.69199997
-0.40000001 2.1819999 -0.69099998
-0.40200001 2.191 -0.69199997
-0.40400001 2.204 -0.69300002
-0.40599999 2.2149999 -0.69400001
-0.40700001 2.2219999 -0.69400001
-0.40799999 2.2279999 -0.69300002
-0.40900001 2.234 -0.69199997
-0.41 2.2390001 -0.69199997
-0.41100001 2.243 -0.69
-0.41100001 2.247 -0.68900001
-0.412 2.25 -0.68800002
-0.412 2.253 -0.68599999
-0.41299999 2.2550001 -0.68400002
-0.41299999 2.26 -0.68300003
-0.41499999 2.266 -0.68300003
-0.41499999 2.2720001 -0.68199998
-0.41600001 2.276 -0.68099999
-0.417 2.28 -0.68000001
-0.41800001 2.2850001 -0.67799997
-0.36399999 2.0020001 -0.53200001
-0.36399999 2.0020001 -0.52899998
-0.36300001 1.999 -0.52700001
-0.36199999 1.995 -0.52399999
-0.36199999 1.992 -0.52100003
-0.36199999 1.992 -0.51800001
-0.361 1.989 -0.51499999
-0.36000001 1.983 -0.51200002
-0.359 1.979 -0.509
-0.359 1.976 -0.50599998
-0.35800001 1.974 -0.50300002
-0.35800001 1.971 -0.5
-0.35699999 1.969 -0.498
-0.35600001 1.967 -0.495
-0.35600001 1.965 -0.493
-0.35499999 1.9630001 -0.49000001
-0.35499999 1.962 -0.48800001
-0.35499999 1.961 -0.48500001
-0.35499999 1.959 -0.48300001
-0.354 1.957 -0.47999999
-0.354 1.955 -0.47799999
-0.354 1.9529999 -0.47499999
-0.35299999 1.952 -0.47299999
-0.35299999 1.951 -0.47
-0.35299999 1.951 -0.46799999
-0.35299999 1.95 -0.46599999
-0.35299999 1.949 -0.46399999
-0.352 1.947 -0.461
-0.352 1.946 -0.45899999
-0.352 1.9450001 -0.45699999
-0.35100001 1.9450001 -0.45500001
-0.35100001 1.944 -0.45199999
-0.35100001 1.943 -0.44999999
-0.35100001 1.942 -0.447
-0.34999999 1.941 -0.44499999
-0.34999999 1.941 -0.44299999
-0.34999999 1.9400001 -0.44100001
-0.34999999 1.9400001 -0.43900001
-0.34999999 1.9400001 -0.43700001
-0.34999999 1.939 -0.435
-0.34999999 1.939 -0.433
-0.34999999 1.9400001 -0.43099999
-0.34999999 1.9400001 -0.42899999
-0.34999999 1.939 -0.426
-0.34900001 1.938 -0.42399999
-0.34900001 1.937 -0.42199999
-0.34900001 1.936 -0.41999999
-0.34900001 1.9349999 -0.417
-0.34799999 1.934 -0.41499999
-0.34799999 1.933 -0.41299999
-0.34799999 1.933 -0.41100001
-0.34799999 1.933 -0.40900001
-0.34799999 1.933 -0.40700001
-0.34799999 1.931 -0.405
-0.34799999 1.931 -0.40200001
-0.34799999 1.932 -0.40099999
-0.34799999 1.932 -0.39899999
-0.34799999 1.932 -0.39700001
-0.34799999 1.932 -0.39500001
-0.34799999 1.932 -0.39199999
-0.389 2.1259999 -0.74000001
-0.389 2.128 -0.73799998
-0.38999999 2.131 -0.736
-0.38999999 2.1340001 -0.73500001
-0.391 2.138 -0.73400003
-0.391 2.141 -0.73299998
-0.391 2.142 -0.73100001
-0.39199999 2.1440001 -0.72899997
-0.39199999 2.1459999 -0.727
-0.39199999 2.1500001 -0.72600001
-0.39399999 2.1570001 -0.72600001
-0.345 1.895 -0.63599998
-0.34900001 1.92 -0.62800002
-0.347 1.909 -0.61699998
-0.39700001 2.181 -0.70200002
-0.396 2.1789999 -0.69999999
-0.396 2.178 -0.69700003
-0.396 2.178 -0.69400001
-0.39700001 2.1819999 -0.69300002
-0.398 2.1889999 -0.69300002
-0.40000001 2.2 -0.69400001
-0.40200001 2.2119999 -0.69599998
-0.40400001 2.2219999 -0.69599998
-0.40400001 2.2260001 -0.69499999
-0.405 2.2320001 -0.69400001
-0.40599999 2.2360001 -0.69300002
-0.40599999 2.2409999 -0.69199997
-0.40700001 2.2449999 -0.69099998
-0.40799999 2.2479999 -0.69
-0.40799999 2.2520001 -0.68800002
-0.40900001 2.2550001 -0.68599999
-0.40900001 2.2579999 -0.685
-0.41 2.263 -0.68400002
-0.41100001 2.2690001 -0.68400002
-0.412 2.2739999 -0.68300003
-0.41299999 2.2780001 -0.68099999
-0.36199999 1.9960001 -0.59500003
-0.36000001 2.0009999 -0.53100002
-0.36000001 1.999 -0.52899998
-0.359 1.9960001 -0.52600002
-0.35800001 1.992 -0.523
-0.35800001 1.99 -0.51999998
-0.35800001 1.99 -0.51800001
-0.35699999 1.987 -0.51499999
-0.35600001 1.983 -0.51200002
-0.35600001 1.98 -0.509
-0.35499999 1.977 -0.50599998
-0.35499999 1.975 -0.50300002
-0.354 1.973 -0.50099999
-0.354 1.971 -0.498
-0.354 1.969 -0.49599999
-0.35299999 1.967 -0.493
-0.352 1.964 -0.49000001
-0.352 1.962 -0.48800001
-0.352 1.96 -0.48500001
-0.35100001 1.959 -0.48199999
-0.35100001 1.957 -0.47999999
-0.35100001 1.956 -0.47799999
-0.34999999 1.954 -0.47499999
-0.34999999 1.952 -0.47299999
-0.34999999 1.951 -0.47
-0.34999999 1.95 -0.46799999
-0.34999999 1.95 -0.46599999
-0.34999999 1.95 -0.46399999
-0.34900001 1.948 -0.461
-0.34900001 1.946 -0.45899999
-0.34799999 1.9450001 -0.45699999
-0.34799999 1.944 -0.454
-0.34799999 1.944 -0.45199999
-0.34799999 1.942 -0.44999999
-0.347 1.941 -0.447
-0.347 1.9400001 -0.44499999
-0.347 1.9400001 -0.44299999
-0.347 1.939 -0.44100001
-0.347 1.939 -0.43900001
-0.347 1.939 -0.43599999
-0.347 1.938 -0.43399999
-0.34599999 1.938 -0.43200001
-0.34599999 1.938 -0.43000001
-0.34599999 1.938 -0.428
-0.34599999 1.937 -0.426
-0.34599999 1.936 -0.42399999
-0.34599999 1.934 -0.42199999
-0.345 1.933 -0.419
-0.345 1.932 -0.417
-0.345 1.931 -0.414
-0.345 1.931 -0.412
-0.345 1.931 -0.41
-0.345 1.932 -0.40799999
-0.345 1.932 -0.40599999
-0.34400001 1.9299999 -0.40400001
-0.34400001 1.9299999 -0.40200001
-0.345 1.932 -0.40099999
-0.345 1.932 -0.39899999
-0.345 1.932 -0.39700001
-0.345 1.932 -0.39500001
-0.345 1.932 -0.39300001
-0.38499999 2.125 -0.73900002
-0.38600001 2.1270001 -0.73699999
-0.38600001 2.131 -0.736
-0.38699999 2.135 -0.73500001
-0.38699999 2.1400001 -0.73500001
-0.38800001 2.1429999 -0.73299998
-0.38800001 2.145 -0.73199999
-0.38800001 2.1459999 -0.73000002
-0.38800001 2.1470001 -0.727
-0.389 2.151 -0.72600001
-0.38999999 2.1589999 -0.727
-0.39199999 2.1719999 -0.72899997
-0.396 2.1889999 -0.73199999
-0.39500001 2.1900001 -0.71499997
-0.39399999 2.187 -0.71200001
-0.39399999 2.184 -0.708
-0.39399999 2.1819999 -0.70599997
-0.39300001 2.181 -0.70200002
-0.39300001 2.1800001 -0.69999999
-0.39300001 2.1800001 -0.69700003
-0.39300001 2.1819999 -0.69499999
-0.39399999 2.188 -0.69499999
-0.39500001 2.197 -0.69499999
-0.39700001 2.207 -0.69599998
-0.39899999 2.2179999 -0.69700003
-0.40099999 2.2260001 -0.69700003
-0.40099999 2.2290001 -0.69599998
-0.40200001 2.234 -0.69499999
-0.40200001 2.2390001 -0.69400001
-0.403 2.244 -0.69300002
-0.40400001 2.2490001 -0.69199997
-0.40400001 2.2520001 -0.69099998
-0.405 2.2550001 -0.68900001
-0.405 2.2579999 -0.68699998
-0.40599999 2.2620001 -0.68599999
-0.40700001 2.2679999 -0.68599999
-0.40799999 2.2750001 -0.685
-0.40900001 2.28 -0.68400002
-0.41 2.283 -0.68199998
-0.35699999 1.999 -0.53100002
-0.35600001 1.997 -0.52899998
-0.35600001 1.995 -0.52600002
-0.35499999 1.992 -0.523
-0.35499999 1.99 -0.51999998
-0.354 1.989 -0.51800001
-0.354 1.987 -0.51499999
-0.35299999 1.985 -0.51200002
-0.35299999 1.982 -0.50999999
-0.352 1.979 -0.50599998
-0.352 1.977 -0.50400001
-0.35100001 1.974 -0.50099999
-0.35100001 1.972 -0.49900001
-0.35100001 1.971 -0.49599999
-0.34999999 1.9680001 -0.49399999
-0.34900001 1.965 -0.49000001
-0.34900001 1.962 -0.48800001
-0.34799999 1.959 -0.484
-0.34799999 1.9579999 -0.48199999
-0.34799999 1.957 -0.47999999
-0.34799999 1.956 -0.477
-0.347 1.954 -0.47499999
-0.347 1.952 -0.472
-0.347 1.95 -0.47
-0.34599999 1.95 -0.46799999
-0.34599999 1.95 -0.46599999
-0.34599999 1.95 -0.46399999
-0.34599999 1.948 -0.461
-0.34599999 1.947 -0.45899999
-0.345 1.946 -0.456
-0.345 1.9450001 -0.454
-0.345 1.944 -0.45199999
-0.345 1.943 -0.44999999
-0.34400001 1.942 -0.447
-0.34400001 1.941 -0.44499999
-0.34400001 1.9400001 -0.44299999
-0.34400001 1.939 -0.44100001
-0.34400001 1.938 -0.43799999
-0.34400001 1.938 -0.43599999
-0.34400001 1.937 -0.43399999
-0.34299999 1.937 -0.43200001
-0.34299999 1.936 -0.43000001
-0.34299999 1.9349999 -0.428
-0.34299999 1.9349999 -0.426
-0.34200001 1.934 -0.42399999
-0.34200001 1.932 -0.421
-0.34200001 1.931 -0.419
-0.34200001 1.931 -0.41600001
-0.34200001 1.9299999 -0.414
-0.34099999 1.9299999 -0.412
-0.34099999 1.9299999 -0.41
-0.34200001 1.9299999 -0.40799999
-0.34200001 1.931 -0.40599999
-0.34099999 1.9299999 -0.40400001
-0.34099999 1.931 -0.40200001
-0.34200001 1.932 -0.40099999
-0.34200001 1.932 -0.39899999
-0.34200001 1.933 -0.39700001
-0.34200001 1.933 -0.39500001
-0.34200001 1.934 -0.39300001
-0.38100001 2.1210001 -0.73799998
-0.37200001 2.0710001 -0.71799999
-0.354 1.969 -0.68000001
-0.35499999 1.974 -0.68000001
-0.375 2.0869999 -0.71700001
-0.384 2.1440001 -0.73400003
-0.384 2.145 -0.73199999
-0.38499999 2.1459999 -0.73000002
-0.38499999 2.1459999 -0.727
-0.38499999 2.1500001 -0.72600001
-0.38699999 2.158 -0.72600001
-0.389 2.1719999 -0.72799999
-0.39199999 2.1900001 -0.73199999
-0.39199999 2.194 -0.72100002
-0.39199999 2.1930001 -0.71799999
-0.391 2.191 -0.71499997
-0.391 2.187 -0.71200001
-0.38999999 2.184 -0.70899999
-0.38999999 2.1819999 -0.70599997
-0.38999999 2.181 -0.70300001
-0.38999999 2.181 -0.69999999
-0.38999999 2.1819999 -0.69800001
-0.38999999 2.1860001 -0.69700003
-0.391 2.1930001 -0.69700003
-0.39300001 2.2019999 -0.69700003
-0.39399999 2.211 -0.69800001
-0.396 2.22 -0.69800001
-0.39700001 2.2260001 -0.69700003
-0.39700001 2.23 -0.69599998
-0.398 2.2349999 -0.69499999
-0.39899999 2.2420001 -0.69499999
-0.40000001 2.2479999 -0.69499999
-0.40099999 2.2539999 -0.69400001
-0.40200001 2.2590001 -0.69199997
-0.40200001 2.2620001 -0.69099998
-0.403 2.266 -0.69
-0.40400001 2.2709999 -0.68800002
-0.405 2.277 -0.68800002
-0.40599999 2.2850001 -0.68800002
-0.40700001 2.289 -0.68699998
-0.40700001 2.289 -0.68400002
-0.354 2.003 -0.53200001
-0.354 2.0009999 -0.52899998
-0.35299999 1.999 -0.52700001
-0.352 1.995 -0.52399999
-0.352 1.993 -0.52100003
-0.352 1.9910001 -0.51800001
-0.35100001 1.989 -0.51599997
-0.34999999 1.9859999 -0.51300001
-0.34900001 1.983 -0.50999999
-0.34900001 1.98 -0.50700003
-0.34799999 1.977 -0.50400001
-0.34799999 1.974 -0.50099999
-0.34799999 1.972 -0.498
-0.34799999 1.971 -0.49599999
-0.347 1.969 -0.493
-0.34599999 1.965 -0.49000001
-0.345 1.962 -0.48699999
-0.345 1.96 -0.48500001
-0.345 1.9579999 -0.48199999
-0.345 1.956 -0.479
-0.34400001 1.954 -0.477
-0.34400001 1.952 -0.47400001
-0.34299999 1.951 -0.472
-0.34299999 1.949 -0.46900001
-0.34299999 1.948 -0.46700001
-0.34299999 1.948 -0.465
-0.34299999 1.947 -0.463
-0.34299999 1.947 -0.461
-0.34200001 1.947 -0.45899999
-0.34200001 1.947 -0.45699999
-0.34200001 1.946 -0.45500001
-0.34200001 1.944 -0.45199999
-0.34200001 1.943 -0.44999999
-0.34200001 1.943 -0.44800001
-0.34099999 1.942 -0.44600001
-0.34099999 1.9400001 -0.44299999
-0.34 1.938 -0.44100001
-0.34 1.937 -0.43799999
-0.34 1.937 -0.43599999
-0.34 1.936 -0.43399999
-0.34 1.936 -0.43200001
-0.34 1.936 -0.43000001
-0.33899999 1.9349999 -0.428
-0.33899999 1.933 -0.42500001
-0.33899999 1.932 -0.42300001
-0.33899999 1.933 -0.421
-0.33899999 1.933 -0.419
-0.33899999 1.932 -0.417
-0.33899999 1.932 -0.41499999
-0.33899999 1.931 -0.412
-0.338 1.9299999 -0.41
-0.338 1.9299999 -0.40799999
-0.33899999 1.9299999 -0.40599999
-0.33899999 1.931 -0.40400001
-0.33899999 1.931 -0.40200001
-0.33899999 1.932 -0.40099999
-0.33899999 1.932 -0.39899999
-0.33899999 1.933 -0.39700001
-0.33899999 1.934 -0.39500001
-0.33899999 1.9349999 -0.39300001
-0.377 2.118 -0.736
-0.38 2.1440001 -0.73299998
-0.38 2.145 -0.73100001
-0.38100001 2.1459999 -0.72899997
-0.38100001 2.1470001 -0.727
-0.382 2.1530001 -0.72600001
-0.384 2.1619999 -0.727
-0.38600001 2.175 -0.72899997
-0.38800001 2.1900001 -0.73199999
-0.38800001 2.1900001 -0.72000003
-0.38800001 2.191 -0.71700001
-0.38699999 2.1900001 -0.71499997
-0.38699999 2.187 -0.71200001
-0.38600001 2.1860001 -0.70899999
-0.38600001 2.1860001 -0.70599997
-0.38600001 2.1849999 -0.704
-0.38600001 2.184 -0.70099998
-0.38699999 2.187 -0.69999999
-0.38800001 2.1930001 -0.699
-0.389 2.201 -0.699
-0.391 2.21 -0.699
-0.39199999 2.2179999 -0.69999999
-0.39300001 2.2249999 -0.699
-0.39399999 2.2320001 -0.699
-0.39500001 2.2379999 -0.69800001
-0.396 2.243 -0.69700003
-0.396 2.247 -0.69599998
-0.39700001 2.2509999 -0.69499999
-0.398 2.256 -0.69400001
-0.39899999 2.26 -0.69300002
-0.39899999 2.263 -0.69099998
-0.40000001 2.266 -0.69
-0.40000001 2.2709999 -0.68800002
-0.40099999 2.2780001 -0.68800002
-0.403 2.2880001 -0.68900001
-0.403 2.2920001 -0.68800002
-0.403 2.2920001 -0.685
-0.352 2.0120001 -0.53399998
-0.352 2.0079999 -0.53100002
-0.35100001 2.0050001 -0.52700001
-0.34999999 2.0009999 -0.52399999
-0.34900001 1.999 -0.52200001
-0.34900001 1.997 -0.51899999
-0.34900001 1.994 -0.51599997
-0.34799999 1.99 -0.51300001
-0.347 1.987 -0.50999999
-0.347 1.984 -0.50700003
-0.34599999 1.9809999 -0.50400001
-0.34599999 1.977 -0.50099999
-0.345 1.973 -0.498
-0.34400001 1.971 -0.49599999
-0.34299999 1.967 -0.49200001
-0.34200001 1.961 -0.48899999
-0.34200001 1.959 -0.486
-0.34200001 1.96 -0.48500001
-0.34200001 1.9579999 -0.48199999
-0.34099999 1.955 -0.479
-0.34 1.952 -0.477
-0.34 1.95 -0.47400001
-0.33899999 1.949 -0.47099999
-0.33899999 1.949 -0.47
-0.33899999 1.949 -0.46700001
-0.33899999 1.946 -0.465
-0.33899999 1.9450001 -0.46200001
-0.33899999 1.9450001 -0.46000001
-0.338 1.944 -0.458
-0.338 1.944 -0.456
-0.338 1.944 -0.454
-0.338 1.943 -0.45199999
-0.338 1.942 -0.44999999
-0.338 1.9400001 -0.447
-0.33700001 1.938 -0.44400001
-0.33700001 1.938 -0.442
-0.33700001 1.937 -0.44
-0.33700001 1.936 -0.43799999
-0.336 1.9349999 -0.43599999
-0.336 1.934 -0.433
-0.336 1.933 -0.43099999
-0.336 1.933 -0.42899999
-0.336 1.933 -0.42699999
-0.336 1.932 -0.42399999
-0.33500001 1.931 -0.42199999
-0.33500001 1.931 -0.41999999
-0.33500001 1.931 -0.41800001
-0.33500001 1.9299999 -0.41600001
-0.33500001 1.9299999 -0.414
-0.33500001 1.929 -0.412
-0.33500001 1.9299999 -0.40599999
-0.33500001 1.931 -0.40400001
-0.33500001 1.931 -0.40200001
-0.33500001 1.931 -0.40000001
-0.33500001 1.932 -0.396
-0.33500001 1.933 -0.39399999
-0.33500001 1.934 -0.39300001
-0.34999999 1.988 -0.68099999
-0.37799999 2.151 -0.73500001
-0.37799999 2.1500001 -0.73299998
-0.38299999 2.177 -0.73000002
-0.384 2.188 -0.73100001
-0.35600001 2.0280001 -0.676
-0.35499999 2.0239999 -0.667
-0.384 2.188 -0.71899998
-0.384 2.1889999 -0.71700001
-0.38299999 2.188 -0.71399999
-0.38299999 2.187 -0.71100003
-0.38299999 2.1849999 -0.70899999
-0.38299999 2.184 -0.70599997
-0.38299999 2.184 -0.70300001
-0.38299999 2.1860001 -0.70099998
-0.384 2.1900001 -0.69999999
-0.38499999 2.1960001 -0.69999999
-0.38600001 2.2030001 -0.69999999
-0.38699999 2.21 -0.699
-0.38800001 2.2179999 -0.699
-0.389 2.2249999 -0.699
-0.38999999 2.2320001 -0.699
-0.391 2.2379999 -0.69800001
-0.39199999 2.244 -0.69800001
-0.39300001 2.2509999 -0.69800001
-0.39399999 2.256 -0.69700003
-0.39500001 2.2609999 -0.69499999
-0.39500001 2.2639999 -0.69400001
-0.396 2.267 -0.69199997
-0.39700001 2.2709999 -0.69099998
-0.39700001 2.276 -0.69
-0.347 2.0009999 -0.53100002
-0.34599999 1.998 -0.528
-0.34599999 1.997 -0.52600002
-0.34599999 1.9960001 -0.523
-0.34599999 1.995 -0.52100003
-0.34599999 1.995 -0.51899999
-0.345 1.992 -0.51599997
-0.34400001 1.988 -0.51300001
-0.34299999 1.985 -0.50999999
-0.34299999 1.982 -0.50700003
-0.34200001 1.979 -0.50400001
-0.34200001 1.976 -0.50099999
-0.34099999 1.973 -0.498
-0.34099999 1.969 -0.49599999
-0.34 1.966 -0.49200001
-0.33899999 1.962 -0.48899999
-0.33899999 1.96 -0.48699999
-0.33899999 1.9579999 -0.484
-0.338 1.957 -0.48199999
-0.338 1.956 -0.479
-0.33700001 1.954 -0.47600001
-0.33700001 1.95 -0.47400001
-0.336 1.948 -0.47099999
-0.336 1.947 -0.46900001
-0.336 1.946 -0.46599999
-0.336 1.944 -0.46399999
-0.33500001 1.944 -0.46200001
-0.33500001 1.943 -0.46000001
-0.33500001 1.943 -0.458
-0.33500001 1.943 -0.45500001
-0.33500001 1.942 -0.45300001
-0.33500001 1.941 -0.45100001
-0.33399999 1.941 -0.449
-0.33399999 1.9400001 -0.447
-0.33399999 1.938 -0.44400001
-0.33399999 1.937 -0.442
-0.333 1.936 -0.43900001
-0.333 1.936 -0.43799999
-0.333 1.936 -0.43599999
-0.333 1.933 -0.433
-0.333 1.932 -0.43099999
-0.333 1.933 -0.42899999
-0.333 1.932 -0.42699999
-0.33199999 1.931 -0.42399999
-0.33199999 1.931 -0.42199999
-0.333 1.932 -0.421
-0.333 1.932 -0.419
-0.33199999 1.931 -0.41600001
-0.33199999 1.9299999 -0.414
-0.33199999 1.9299999 -0.412
-0.33199999 1.9299999 -0.41
-0.33199999 1.9299999 -0.40799999
-0.33199999 1.932 -0.39700001
-0.33199999 1.933 -0.39500001
-0.33199999 1.934 -0.39300001
-0.373 2.1400001 -0.736
-0.37400001 2.148 -0.736
-0.375 2.151 -0.73500001
-0.375 2.151 -0.73299998
-0.32699999 1.882 -0.63999999
-0.33000001 1.899 -0.63800001
-0.37900001 2.1760001 -0.73000002
-0.38 2.1830001 -0.73000002
-0.38 2.1860001 -0.72799999
-0.38 2.1860001 -0.72500002
-0.38 2.1860001 -0.72299999
-0.38 2.187 -0.72100002
-0.38 2.187 -0.71899998
-0.38 2.187 -0.71600002
-0.38 2.187 -0.71399999
-0.38 2.187 -0.71100003
-0.37900001 2.1860001 -0.70899999
-0.37900001 2.1860001 -0.70599997
-0.37900001 2.187 -0.704
-0.38 2.1889999 -0.70200002
-0.38100001 2.194 -0.70099998
-0.382 2.201 -0.70099998
-0.38299999 2.2090001 -0.70099998
-0.384 2.2160001 -0.70099998
-0.38600001 2.224 -0.70099998
-0.38600001 2.2309999 -0.70099998
-0.38699999 2.2379999 -0.70099998
-0.38800001 2.243 -0.69999999
-0.389 2.2490001 -0.699
-0.38999999 2.256 -0.699
-0.391 2.2609999 -0.69800001
-0.39199999 2.2639999 -0.69599998
-0.39199999 2.267 -0.69499999
-0.39300001 2.27 -0.69300002
-0.39300001 2.2739999 -0.69199997
-0.39399999 2.2780001 -0.69
-0.345 1.998 -0.60399997
-0.34200001 1.993 -0.52899998
-0.34200001 1.9910001 -0.52600002
-0.34200001 1.99 -0.52399999
-0.34200001 1.9910001 -0.52200001
-0.34200001 1.9910001 -0.51999998
-0.34200001 1.9910001 -0.51800001
-0.34099999 1.99 -0.51499999
-0.34 1.987 -0.51200002
-0.34 1.984 -0.50999999
-0.33899999 1.9809999 -0.50599998
-0.33899999 1.978 -0.50400001
-0.338 1.975 -0.50099999
-0.338 1.973 -0.498
-0.33700001 1.97 -0.495
-0.33700001 1.966 -0.49200001
-0.336 1.962 -0.49000001
-0.336 1.959 -0.48699999
-0.33500001 1.957 -0.484
-0.33500001 1.956 -0.48100001
-0.33500001 1.955 -0.479
-0.33399999 1.9529999 -0.47600001
-0.333 1.949 -0.47400001
-0.333 1.947 -0.47099999
-0.333 1.9450001 -0.46799999
-0.33199999 1.944 -0.46599999
-0.33199999 1.942 -0.46399999
-0.33199999 1.942 -0.46200001
-0.33199999 1.942 -0.46000001
-0.33199999 1.941 -0.45699999
-0.33199999 1.9400001 -0.45500001
-0.331 1.939 -0.45199999
-0.331 1.939 -0.44999999
-0.331 1.938 -0.44800001
-0.331 1.938 -0.44600001
-0.331 1.938 -0.44400001
-0.331 1.937 -0.442
-0.33000001 1.936 -0.44
-0.33000001 1.936 -0.43799999
-0.33000001 1.936 -0.43599999
-0.33000001 1.934 -0.433
-0.33000001 1.933 -0.43099999
-0.33000001 1.933 -0.42899999
-0.33000001 1.933 -0.42699999
-0.329 1.931 -0.42399999
-0.329 1.931 -0.42199999
-0.329 1.933 -0.421
-0.329 1.933 -0.419
-0.329 1.931 -0.41600001
-0.329 1.9299999 -0.414
-0.329 1.9299999 -0.412
-0.329 1.9299999 -0.41
-0.34299999 1.987 -0.68099999
-0.37099999 2.151 -0.73500001
-0.37099999 2.152 -0.73299998
-0.37099999 2.1530001 -0.73100001
-0.37099999 2.155 -0.73000002
-0.37200001 2.1600001 -0.72899997
-0.37400001 2.168 -0.72899997
-0.375 2.174 -0.72899997
-0.375 2.178 -0.72799999
-0.37599999 2.181 -0.72600001
-0.37599999 2.1819999 -0.72399998
-0.37599999 2.1830001 -0.722
-0.37599999 2.1849999 -0.72000003
-0.37599999 2.1860001 -0.71799999
-0.37599999 2.1860001 -0.71600002
-0.37599999 2.1860001 -0.713
-0.37599999 2.1860001 -0.71100003
-0.37599999 2.187 -0.70899999
-0.37599999 2.187 -0.70599997
-0.37599999 2.1900001 -0.704
-0.377 2.194 -0.70300001
-0.377 2.1989999 -0.70300001
-0.37900001 2.2060001 -0.70200002
-0.38 2.214 -0.70300001
-0.382 2.223 -0.70300001
-0.38299999 2.2309999 -0.70300001
-0.384 2.2390001 -0.70300001
-0.38499999 2.2449999 -0.70200002
-0.38600001 2.2490001 -0.70200002
-0.38600001 2.2539999 -0.69999999
-0.38699999 2.2590001 -0.69999999
-0.38800001 2.2639999 -0.69800001
-0.38800001 2.266 -0.69700003
-0.389 2.27 -0.69599998
-0.38999999 2.273 -0.69400001
-0.38999999 2.2750001 -0.69199997
-0.38999999 2.276 -0.69
-0.361 2.1110001 -0.63800001
-0.338 1.987 -0.523
-0.338 1.987 -0.52100003
-0.338 1.987 -0.51899999
-0.338 1.988 -0.51700002
-0.33700001 1.987 -0.514
-0.33700001 1.985 -0.51200002
-0.336 1.983 -0.509
-0.336 1.979 -0.50599998
-0.33500001 1.976 -0.50300002
-0.33500001 1.974 -0.5
-0.33500001 1.972 -0.498
-0.33399999 1.97 -0.495
-0.333 1.967 -0.49200001
-0.333 1.962 -0.48899999
-0.33199999 1.959 -0.486
-0.33199999 1.956 -0.48300001
-0.33199999 1.955 -0.48100001
-0.331 1.954 -0.479
-0.33000001 1.951 -0.47600001
-0.33000001 1.947 -0.47299999
-0.329 1.9450001 -0.47
-0.329 1.944 -0.46799999
-0.329 1.942 -0.46599999
-0.329 1.941 -0.463
-0.32800001 1.9400001 -0.461
-0.32800001 1.939 -0.45899999
-0.32800001 1.939 -0.45699999
-0.32800001 1.938 -0.454
-0.32800001 1.938 -0.45199999
-0.32800001 1.937 -0.44999999
-0.32800001 1.938 -0.44800001
-0.32800001 1.938 -0.44600001
-0.32800001 1.938 -0.44400001
-0.32800001 1.937 -0.442
-0.32800001 1.937 -0.44
-0.32699999 1.937 -0.43799999
-0.32699999 1.936 -0.43599999
-0.32699999 1.9349999 -0.433
-0.32699999 1.9349999 -0.43099999
-0.32699999 1.9349999 -0.42899999
-0.32699999 1.934 -0.42699999
-0.32600001 1.932 -0.42399999
-0.32600001 1.931 -0.42199999
-0.32600001 1.933 -0.421
-0.32600001 1.933 -0.419
-0.32600001 1.932 -0.41600001
-0.32600001 1.932 -0.414
-0.32600001 1.931 -0.412
-0.36899999 2.1589999 -0.73799998
-0.36899999 2.158 -0.73500001
-0.36899999 2.1589999 -0.73299998
-0.36899999 2.1630001 -0.73199999
-0.37 2.1659999 -0.73100001
-0.37 2.1700001 -0.73000002
-0.37099999 2.1719999 -0.72799999
-0.37099999 2.175 -0.72600001
-0.37200001 2.177 -0.72399998
-0.37200001 2.178 -0.72299999
-0.37200001 2.1789999 -0.72100002
-0.37200001 2.1800001 -0.71799999
-0.37200001 2.1819999 -0.71600002
-0.37200001 2.184 -0.71499997
-0.37200001 2.1849999 -0.713
-0.37200001 2.1849999 -0.70999998
-0.37200001 2.1860001 -0.708
-0.37200001 2.187 -0.70599997
-0.373 2.1900001 -0.70499998
-0.373 2.197 -0.704
-0.37400001 2.2030001 -0.704
-0.375 2.2090001 -0.704
-0.37599999 2.2160001 -0.704
-0.37799999 2.2249999 -0.704
-0.37900001 2.233 -0.704
-0.38100001 2.2409999 -0.70300001
-0.382 2.2460001 -0.70300001
-0.382 2.25 -0.70200002
-0.38299999 2.2539999 -0.70099998
-0.38299999 2.26 -0.699
-0.384 2.2639999 -0.69800001
-0.38499999 2.2679999 -0.69700003
-0.38600001 2.2720001 -0.69599998
-0.38600001 2.276 -0.69499999
-0.38600001 2.276 -0.69199997
-0.38600001 2.2739999 -0.68900001
-0.33399999 1.9859999 -0.523
-0.33399999 1.984 -0.51999998
-0.33399999 1.984 -0.51800001
-0.33399999 1.985 -0.51599997
-0.333 1.984 -0.51300001
-0.333 1.9809999 -0.50999999
-0.33199999 1.978 -0.50700003
-0.33199999 1.975 -0.50400001
-0.33199999 1.973 -0.50199997
-0.33199999 1.971 -0.5
-0.331 1.969 -0.49700001
-0.331 1.967 -0.49399999
-0.33000001 1.964 -0.491
-0.329 1.961 -0.48800001
-0.329 1.959 -0.486
-0.329 1.957 -0.48300001
-0.32800001 1.955 -0.48100001
-0.32800001 1.952 -0.47799999
-0.32699999 1.95 -0.47499999
-0.32600001 1.946 -0.472
-0.32600001 1.943 -0.47
-0.32600001 1.942 -0.46700001
-0.32499999 1.9400001 -0.465
-0.32499999 1.939 -0.463
-0.32499999 1.939 -0.461
-0.32499999 1.938 -0.458
-0.32499999 1.938 -0.456
-0.32499999 1.939 -0.454
-0.32499999 1.939 -0.45199999
-0.32499999 1.938 -0.44999999
-0.32499999 1.939 -0.44800001
-0.32499999 1.9400001 -0.447
-0.32499999 1.9400001 -0.44499999
-0.32499999 1.938 -0.442
-0.32499999 1.937 -0.44
-0.32499999 1.938 -0.43799999
-0.324 1.937 -0.43599999
-0.324 1.936 -0.433
-0.324 1.936 -0.43099999
-0.324 1.936 -0.42899999
-0.32300001 1.9349999 -0.42699999
-0.32300001 1.933 -0.42399999
-0.32300001 1.933 -0.42199999
-0.32300001 1.934 -0.421
-0.324 1.9349999 -0.419
-0.324 1.9349999 -0.417
-0.32300001 1.9349999 -0.41499999
-0.32300001 1.933 -0.412
-0.32300001 1.931 -0.41
-0.36700001 2.1700001 -0.741
-0.36700001 2.1700001 -0.73900002
-0.36700001 2.171 -0.73699999
-0.36700001 2.1730001 -0.73500001
-0.36700001 2.174 -0.73299998
-0.36700001 2.174 -0.73000002
-0.36700001 2.174 -0.72799999
-0.36700001 2.174 -0.72600001
-0.368 2.175 -0.72399998
-0.368 2.1760001 -0.72100002
-0.368 2.177 -0.71899998
-0.368 2.178 -0.71700001
-0.368 2.1789999 -0.71499997
-0.368 2.181 -0.713
-0.368 2.1819999 -0.71100003
-0.368 2.1830001 -0.70999998
-0.368 2.1860001 -0.708
-0.368 2.188 -0.70700002
-0.36899999 2.194 -0.70599997
-0.37099999 2.2030001 -0.70599997
-0.37200001 2.21 -0.70599997
-0.373 2.217 -0.70599997
-0.37400001 2.224 -0.70599997
-0.37599999 2.2320001 -0.70599997
-0.377 2.2390001 -0.70599997
-0.37799999 2.2449999 -0.70499998
-0.37900001 2.25 -0.704
-0.37900001 2.2539999 -0.70300001
-0.37900001 2.256 -0.70099998
-0.37900001 2.2579999 -0.699
-0.38 2.2620001 -0.69800001
-0.38100001 2.2679999 -0.69700003
-0.382 2.2709999 -0.69599998
-0.382 2.2720001 -0.69300002
-0.38100001 2.2690001 -0.69
-0.38 2.2620001 -0.68599999
-0.33000001 1.983 -0.52200001
-0.33000001 1.9809999 -0.51899999
-0.33000001 1.979 -0.51599997
-0.33000001 1.979 -0.514
-0.329 1.978 -0.51200002
-0.329 1.975 -0.509
-0.32800001 1.973 -0.50599998
-0.32800001 1.972 -0.50400001
-0.32800001 1.971 -0.50199997
-0.32800001 1.969 -0.49900001
-0.32699999 1.967 -0.49700001
-0.32699999 1.965 -0.49399999
-0.32600001 1.962 -0.491
-0.32600001 1.959 -0.48800001
-0.32499999 1.956 -0.486
-0.32499999 1.954 -0.48300001
-0.324 1.952 -0.47999999
-0.324 1.948 -0.477
-0.32300001 1.946 -0.47499999
-0.32300001 1.944 -0.472
-0.322 1.942 -0.47
-0.322 1.941 -0.46700001
-0.322 1.9400001 -0.465
-0.322 1.939 -0.463
-0.32100001 1.939 -0.461
-0.32100001 1.9400001 -0.45899999
-0.32100001 1.939 -0.45699999
-0.32100001 1.939 -0.454
-0.32100001 1.939 -0.45199999
-0.32100001 1.939 -0.44999999
-0.32100001 1.9400001 -0.44800001
-0.32100001 1.9400001 -0.44600001
-0.32100001 1.939 -0.44400001
-0.32100001 1.938 -0.442
-0.32100001 1.937 -0.44
-0.32100001 1.936 -0.43700001
-0.31999999 1.936 -0.435
-0.31999999 1.9349999 -0.433
-0.31999999 1.9349999 -0.43099999
-0.31999999 1.934 -0.42899999
-0.31999999 1.934 -0.42699999
-0.31999999 1.933 -0.42399999
-0.31900001 1.932 -0.42199999
-0.31900001 1.933 -0.41999999
-0.31999999 1.933 -0.41800001
-0.31999999 1.933 -0.41600001
-0.31900001 1.932 -0.414
-0.31900001 1.931 -0.412
-0.36399999 2.1730001 -0.73699999
-0.36399999 2.1730001 -0.73500001
-0.36399999 2.1719999 -0.73199999
-0.36399999 2.1719999 -0.73000002
-0.36399999 2.1719999 -0.727
-0.36399999 2.1719999 -0.72500002
-0.36399999 2.1730001 -0.72299999
-0.36399999 2.174 -0.72100002
-0.36399999 2.175 -0.71799999
-0.36399999 2.1760001 -0.71600002
-0.36399999 2.177 -0.71399999
-0.36399999 2.1789999 -0.713
-0.36399999 2.1819999 -0.71100003
-0.36500001 2.1860001 -0.70999998
-0.36500001 2.1900001 -0.70899999
-0.366 2.1949999 -0.708
-0.36700001 2.2019999 -0.708
-0.368 2.21 -0.70899999
-0.36899999 2.2179999 -0.70899999
-0.37 2.223 -0.708
-0.37099999 2.23 -0.70700002
-0.373 2.237 -0.70700002
-0.37400001 2.243 -0.70599997
-0.37400001 2.247 -0.70499998
-0.375 2.2509999 -0.704
-0.375 2.2539999 -0.70300001
-0.37599999 2.256 -0.70099998
-0.37599999 2.2579999 -0.699
-0.37599999 2.2620001 -0.69800001
-0.377 2.2679999 -0.69700003
-0.37799999 2.2720001 -0.69599998
-0.37799999 2.2709999 -0.69300002
-0.32699999 1.982 -0.52100003
-0.32600001 1.979 -0.51800001
-0.32600001 1.977 -0.51599997
-0.32600001 1.975 -0.51300001
-0.32499999 1.973 -0.50999999
-0.32499999 1.971 -0.50800002
-0.324 1.969 -0.505
-0.324 1.967 -0.50300002
-0.324 1.965 -0.5
-0.324 1.964 -0.498
-0.32300001 1.962 -0.495
-0.32300001 1.96 -0.493
-0.322 1.9579999 -0.49000001
-0.322 1.956 -0.48800001
-0.32100001 1.954 -0.48500001
-0.32100001 1.952 -0.48199999
-0.32100001 1.95 -0.47999999
-0.31999999 1.948 -0.477
-0.31999999 1.9450001 -0.47499999
-0.31900001 1.942 -0.472
-0.31900001 1.9400001 -0.46900001
-0.31900001 1.9400001 -0.46700001
-0.31900001 1.939 -0.465
-0.31900001 1.9400001 -0.463
-0.31900001 1.9400001 -0.461
-0.31799999 1.939 -0.458
-0.31799999 1.939 -0.456
-0.31799999 1.939 -0.454
-0.31799999 1.939 -0.45199999
-0.31799999 1.939 -0.44999999
-0.31799999 1.939 -0.44800001
-0.31799999 1.9400001 -0.44600001
-0.31799999 1.9400001 -0.44400001
-0.31799999 1.939 -0.442
-0.31799999 1.938 -0.44
-0.317 1.936 -0.43700001
-0.317 1.9349999 -0.435
-0.317 1.9349999 -0.433
-0.317 1.934 -0.43099999
-0.317 1.933 -0.428
-0.31600001 1.933 -0.426
-0.31600001 1.933 -0.42399999
-0.31600001 1.933 -0.42199999
-0.317 1.933 -0.421
-0.317 1.934 -0.419
-0.31600001 1.933 -0.417
-0.31600001 1.933 -0.41499999
-0.361 2.177 -0.73799998
-0.36000001 2.175 -0.736
-0.36000001 2.174 -0.73299998
-0.36000001 2.1730001 -0.73000002
-0.36000001 2.1719999 -0.727
-0.36000001 2.1719999 -0.72500002
-0.36000001 2.1719999 -0.72299999
-0.36000001 2.174 -0.72100002
-0.36000001 2.175 -0.71799999
-0.36000001 2.1760001 -0.71600002
-0.36000001 2.178 -0.71399999
-0.36000001 2.178 -0.71200001
-0.36000001 2.1819999 -0.71100003
-0.36199999 2.1889999 -0.71100003
-0.36199999 2.1949999 -0.71100003
-0.36399999 2.2019999 -0.71100003
-0.36500001 2.21 -0.71100003
-0.366 2.2190001 -0.71100003
-0.36700001 2.2260001 -0.71100003
-0.368 2.23 -0.70999998
-0.368 2.2349999 -0.70899999
-0.37 2.2409999 -0.708
-0.37 2.2449999 -0.70700002
-0.37 2.2479999 -0.70599997
-0.37099999 2.25 -0.704
-0.37099999 2.2520001 -0.70200002
-0.37200001 2.2539999 -0.69999999
-0.37200001 2.2550001 -0.69800001
-0.37200001 2.2590001 -0.69700003
-0.373 2.2650001 -0.69599998
-0.32699999 1.985 -0.60799998
-0.32600001 1.993 -0.528
-0.324 1.987 -0.52399999
-0.324 1.983 -0.52100003
-0.32300001 1.979 -0.51800001
-0.32300001 1.976 -0.51599997
-0.322 1.973 -0.51200002
-0.322 1.971 -0.50999999
-0.32100001 1.97 -0.50700003
-0.32100001 1.9680001 -0.505
-0.31999999 1.965 -0.50199997
-0.31999999 1.9630001 -0.5
-0.31999999 1.962 -0.49700001
-0.31999999 1.96 -0.495
-0.31900001 1.959 -0.49200001
-0.31900001 1.957 -0.49000001
-0.31799999 1.955 -0.48699999
-0.31799999 1.952 -0.484
-0.31799999 1.95 -0.48199999
-0.317 1.948 -0.479
-0.317 1.946 -0.477
-0.31600001 1.943 -0.47400001
-0.31600001 1.9400001 -0.47099999
-0.315 1.938 -0.46799999
-0.315 1.937 -0.46599999
-0.315 1.937 -0.46399999
-0.315 1.938 -0.46200001
-0.315 1.939 -0.46000001
-0.315 1.939 -0.458
-0.315 1.939 -0.456
-0.315 1.938 -0.454
-0.315 1.938 -0.45199999
-0.315 1.938 -0.44999999
-0.315 1.938 -0.44800001
-0.315 1.938 -0.44600001
-0.31400001 1.937 -0.44400001
-0.31400001 1.937 -0.442
-0.31400001 1.936 -0.43900001
-0.31400001 1.934 -0.43700001
-0.31400001 1.933 -0.43399999
-0.31400001 1.933 -0.43200001
-0.31400001 1.933 -0.43000001
-0.31299999 1.932 -0.428
-0.31299999 1.932 -0.426
-0.31299999 1.933 -0.42399999
-0.31299999 1.933 -0.42199999
-0.31400001 1.934 -0.41999999
-0.31400001 1.934 -0.419
-0.31400001 1.934 -0.417
-0.31299999 1.934 -0.41499999
-0.31299999 1.932 -0.412
-0.35800001 2.184 -0.741
-0.35800001 2.1819999 -0.73799998
-0.35699999 2.1800001 -0.73500001
-0.35699999 2.177 -0.73100001
-0.35699999 2.175 -0.72799999
-0.35600001 2.175 -0.72600001
-0.35600001 2.174 -0.72299999
-0.35600001 2.175 -0.72100002
-0.35600001 2.177 -0.71899998
-0.35699999 2.1789999 -0.71700001
-0.35699999 2.1800001 -0.71499997
-0.35699999 2.1800001 -0.713
-0.35699999 2.1849999 -0.71200001
-0.359 2.1949999 -0.713
-0.36000001 2.2030001 -0.713
-0.361 2.211 -0.713
-0.36300001 2.2190001 -0.713
-0.36399999 2.2279999 -0.71399999
-0.36399999 2.234 -0.713
-0.36500001 2.237 -0.71100003
-0.366 2.24 -0.70999998
-0.366 2.244 -0.70899999
-0.36700001 2.247 -0.708
-0.36700001 2.2479999 -0.70599997
-0.36700001 2.25 -0.704
-0.36700001 2.2509999 -0.70099998
-0.36700001 2.2509999 -0.699
-0.36700001 2.2509999 -0.69700003
-0.36700001 2.253 -0.69499999
-0.368 2.2579999 -0.69400001
-0.322 1.995 -0.52899998
-0.32100001 1.989 -0.52499998
-0.32100001 1.984 -0.52200001
-0.31999999 1.979 -0.51800001
-0.31900001 1.976 -0.51499999
-0.31900001 1.973 -0.51200002
-0.31799999 1.97 -0.509
-0.31799999 1.9680001 -0.50700003
-0.317 1.967 -0.50400001
-0.317 1.965 -0.50199997
-0.317 1.9630001 -0.49900001
-0.317 1.961 -0.49700001
-0.31600001 1.96 -0.49399999
-0.31600001 1.959 -0.49200001
-0.31600001 1.957 -0.48899999
-0.315 1.954 -0.486
-0.315 1.952 -0.484
-0.31400001 1.949 -0.48100001
-0.31400001 1.946 -0.479
-0.31299999 1.944 -0.47600001
-0.31299999 1.942 -0.47400001
-0.31200001 1.939 -0.47
-0.31200001 1.937 -0.46799999
-0.31200001 1.936 -0.465
-0.31200001 1.936 -0.463
-0.31200001 1.936 -0.46200001
-0.31200001 1.937 -0.46000001
-0.31200001 1.938 -0.458
-0.31200001 1.938 -0.456
-0.31200001 1.937 -0.45300001
-0.31200001 1.936 -0.45100001
-0.31200001 1.937 -0.44999999
