ply
format ascii 1.0
comment PCL generated
element vertex 1605
property float x
property float y
property float z
element face 0
element camera 0
property float view_px
property float view_py
property float view_pz
property float x_axisx
property float x_axisy
property float x_axisz
property float y_axisx
property float y_axisy
property float y_axisz
property float z_axisx
property float z_axisy
property float z_axisz
property float focal
property float scalex
property float scaley
property float centerx
property float centery
property int viewportx
property int viewporty
property float k1
property float k2
end_header
-0.74900001 1.977 -0.37
-0.74900001 1.977 -0.368
-0.75 1.98 -0.366
-0.75099999 1.985 -0.36500001
-0.75400001 1.9910001 -0.36399999
-0.755 1.995 -0.36199999
-0.75599998 1.997 -0.36000001
-0.75599998 1.999 -0.359
-0.75700003 2.0020001 -0.35699999
-0.75800002 2.0050001 -0.35499999
-0.759 2.0079999 -0.354
-0.75999999 2.01 -0.352
-0.75999999 2.01 -0.34999999
-0.75999999 2.0109999 -0.34799999
-0.75999999 2.0120001 -0.34599999
-0.75999999 2.0109999 -0.34299999
-0.759 2.0090001 -0.34099999
-0.75800002 2.007 -0.338
-0.75800002 2.006 -0.336
-0.75599998 2.0020001 -0.333
-0.75400001 1.998 -0.33000001
-0.75300002 1.994 -0.32800001
-0.75199997 1.993 -0.32600001
-0.75199997 1.993 -0.324
-0.75199997 1.993 -0.322
-0.75400001 1.9960001 -0.31999999
-0.755 2.0020001 -0.31799999
-0.75700003 2.006 -0.317
-0.75800002 2.0079999 -0.315
-0.75999999 2.0139999 -0.31400001
-0.76300001 2.0220001 -0.31299999
-0.76499999 2.0280001 -0.31200001
-0.76599997 2.0309999 -0.31
-0.76700002 2.0339999 -0.30899999
-0.76800001 2.036 -0.30700001
-0.76700002 2.0350001 -0.30399999
-0.76599997 2.0320001 -0.30199999
-0.745 1.955 -0.52100003
-0.74599999 1.9579999 -0.51999998
-0.74699998 1.961 -0.51800001
-0.74800003 1.964 -0.51700002
-0.74900001 1.966 -0.51499999
-0.74900001 1.967 -0.51300001
-0.74900001 1.967 -0.51099998
-0.74900001 1.966 -0.509
-0.74800003 1.966 -0.50599998
-0.74800003 1.966 -0.50400001
-0.74800003 1.965 -0.50199997
-0.74699998 1.965 -0.49900001
-0.74699998 1.9630001 -0.49700001
-0.74599999 1.961 -0.49399999
-0.745 1.96 -0.49200001
-0.745 1.96 -0.49000001
-0.745 1.961 -0.48800001
-0.745 1.962 -0.486
-0.745 1.962 -0.484
-0.745 1.962 -0.48100001
-0.75 1.9809999 -0.44100001
-0.75 1.983 -0.43900001
-0.75 1.983 -0.43700001
-0.75 1.983 -0.435
-0.75099999 1.983 -0.433
-0.75099999 1.985 -0.43099999
-0.75099999 1.9859999 -0.42899999
-0.75099999 1.9859999 -0.426
-0.75099999 1.987 -0.42399999
-0.75199997 1.989 -0.42300001
-0.75300002 1.9910001 -0.421
-0.75300002 1.9910001 -0.419
-0.75300002 1.992 -0.417
-0.75300002 1.992 -0.41499999
-0.75199997 1.9910001 -0.41299999
-0.75099999 1.989 -0.41
-0.75099999 1.988 -0.40799999
-0.75 1.987 -0.405
-0.74800003 1.982 -0.40200001
-0.745 1.974 -0.398
-0.74299997 1.969 -0.39500001
-0.74199998 1.967 -0.39300001
-0.74299997 1.969 -0.391
-0.745 1.975 -0.38999999
-0.75 1.988 -0.38
-0.75800002 2.013 -0.36300001
-0.75800002 2.0139999 -0.361
-0.75800002 2.0150001 -0.359
-0.759 2.017 -0.35800001
-0.75999999 2.02 -0.35600001
-0.75999999 2.0209999 -0.354
-0.75999999 2.0209999 -0.352
-0.75999999 2.0220001 -0.34999999
-0.75999999 2.0220001 -0.34799999
-0.75999999 2.0209999 -0.345
-0.759 2.0190001 -0.34200001
-0.75800002 2.016 -0.34
-0.75700003 2.0139999 -0.33700001
-0.75599998 2.01 -0.33399999
-0.75300002 2.0039999 -0.33199999
-0.75199997 2.0009999 -0.329
-0.75099999 2 -0.32699999
-0.75199997 2 -0.32499999
-0.75199997 2.0020001 -0.32300001
-0.75400001 2.007 -0.32100001
-0.75599998 2.0139999 -0.31999999
-0.75800002 2.02 -0.31900001
-0.76599997 2.0409999 -0.31600001
-0.76800001 2.046 -0.308
-0.76700002 2.0439999 -0.30599999
-0.745 1.9630001 -0.523
-0.745 1.9630001 -0.52100003
-0.745 1.964 -0.51899999
-0.74599999 1.967 -0.51700002
-0.74599999 1.9680001 -0.51499999
-0.74599999 1.9680001 -0.51300001
-0.74599999 1.969 -0.51099998
-0.74599999 1.9680001 -0.509
-0.745 1.9680001 -0.50700003
-0.745 1.967 -0.50400001
-0.745 1.966 -0.50199997
-0.74400002 1.966 -0.49900001
-0.74400002 1.965 -0.49700001
-0.74299997 1.962 -0.49399999
-0.74199998 1.961 -0.491
-0.74199998 1.961 -0.49000001
-0.74199998 1.962 -0.48800001
-0.74299997 1.964 -0.486
-0.74699998 1.982 -0.44100001
-0.74699998 1.983 -0.43900001
-0.74699998 1.984 -0.43700001
-0.74699998 1.982 -0.43399999
-0.74699998 1.983 -0.43200001
-0.74699998 1.984 -0.43099999
-0.74800003 1.9859999 -0.42899999
-0.74800003 1.9859999 -0.426
-0.74800003 1.988 -0.42399999
-0.74900001 1.9910001 -0.42300001
-0.74900001 1.992 -0.421
-0.75 1.993 -0.419
-0.75 1.993 -0.417
-0.75 1.994 -0.41499999
-0.75 1.993 -0.41299999
-0.74900001 1.992 -0.41100001
-0.74800003 1.9910001 -0.40799999
-0.74800003 1.99 -0.40599999
-0.759 2.027 -0.36500001
-0.759 2.0280001 -0.36300001
-0.75999999 2.029 -0.36199999
-0.75999999 2.03 -0.36000001
-0.76099998 2.033 -0.35800001
-0.76200002 2.0339999 -0.35600001
-0.76099998 2.0339999 -0.354
-0.76200002 2.0350001 -0.352
-0.76200002 2.0369999 -0.34999999
-0.75599998 2.02 -0.33399999
-0.75400001 2.017 -0.331
-0.75400001 2.017 -0.329
-0.741 1.9630001 -0.51800001
-0.741 1.964 -0.51599997
-0.74199998 1.966 -0.514
-0.74199998 1.967 -0.51300001
-0.74199998 1.9680001 -0.51099998
-0.74199998 1.9680001 -0.50800002
-0.74199998 1.9680001 -0.50599998
-0.74199998 1.967 -0.50400001
-0.74199998 1.9680001 -0.50199997
-0.74199998 1.969 -0.5
-0.741 1.9680001 -0.498
-0.74000001 1.966 -0.495
-0.73900002 1.964 -0.49200001
-0.73900002 1.964 -0.49000001
-0.73900002 1.965 -0.48800001
-0.74000001 1.967 -0.486
-0.74400002 1.984 -0.44499999
-0.74299997 1.9809999 -0.442
-0.74299997 1.9809999 -0.44
-0.74299997 1.982 -0.43799999
-0.74299997 1.983 -0.43599999
-0.74299997 1.982 -0.43399999
-0.74299997 1.982 -0.43200001
-0.74299997 1.984 -0.43000001
-0.74400002 1.985 -0.428
-0.74400002 1.987 -0.426
-0.745 1.989 -0.42500001
-0.74599999 1.993 -0.42399999
-0.74699998 1.995 -0.42199999
-0.74699998 1.9960001 -0.41999999
-0.74699998 1.9960001 -0.41800001
-0.74699998 1.997 -0.41600001
-0.74699998 1.997 -0.414
-0.74699998 1.9960001 -0.41100001
-0.74699998 1.995 -0.40900001
-0.74599999 1.995 -0.40599999
-0.75800002 2.0320001 -0.368
-0.75800002 2.033 -0.366
-0.75800002 2.0350001 -0.36399999
-0.759 2.036 -0.36300001
-0.75999999 2.039 -0.361
-0.76099998 2.043 -0.36000001
-0.76200002 2.0450001 -0.35800001
-0.76200002 2.046 -0.35499999
-0.76200002 2.0469999 -0.35299999
-0.764 2.05 -0.352
-0.764 2.0510001 -0.34999999
-0.76300001 2.05 -0.34799999
-0.74699998 2.007 -0.32300001
-0.73699999 1.962 -0.51700002
-0.73799998 1.965 -0.51599997
-0.73799998 1.966 -0.514
-0.73799998 1.967 -0.51200002
-0.73799998 1.967 -0.50999999
-0.73799998 1.9680001 -0.50800002
-0.73799998 1.9680001 -0.50599998
-0.73799998 1.9680001 -0.50400001
-0.73900002 1.969 -0.50199997
-0.73900002 1.971 -0.5
-0.73900002 1.97 -0.498
-0.73799998 1.9680001 -0.495
-0.73699999 1.967 -0.493
-0.73699999 1.969 -0.491
-0.73799998 1.971 -0.48899999
-0.73900002 1.973 -0.48800001
-0.74000001 1.983 -0.44499999
-0.74000001 1.9809999 -0.442
-0.74000001 1.982 -0.44
-0.74000001 1.983 -0.43799999
-0.74000001 1.984 -0.43599999
-0.74000001 1.984 -0.43399999
-0.74000001 1.985 -0.43200001
-0.74000001 1.9859999 -0.43099999
-0.741 1.987 -0.42899999
-0.741 1.989 -0.42699999
-0.74199998 1.9910001 -0.42500001
-0.74299997 1.994 -0.42399999
-0.74299997 1.9960001 -0.42199999
-0.74299997 1.997 -0.41999999
-0.74299997 1.997 -0.41800001
-0.74299997 1.998 -0.41600001
-0.74400002 1.998 -0.414
-0.74400002 1.998 -0.412
-0.745 2 -0.41
-0.74599999 2.003 -0.40799999
-0.75599998 2.0380001 -0.36899999
-0.75700003 2.0420001 -0.368
-0.75800002 2.0439999 -0.366
-0.75800002 2.0439999 -0.36399999
-0.759 2.046 -0.36199999
-0.75999999 2.049 -0.361
-0.76099998 2.052 -0.359
-0.76200002 2.0539999 -0.35699999
-0.76200002 2.0569999 -0.35499999
-0.764 2.0599999 -0.354
-0.764 2.062 -0.352
-0.73400003 1.964 -0.51800001
-0.73500001 1.967 -0.51599997
-0.73500001 1.9680001 -0.51499999
-0.73500001 1.969 -0.51300001
-0.73500001 1.969 -0.51099998
-0.73500001 1.969 -0.50800002
-0.73500001 1.97 -0.50599998
-0.73500001 1.97 -0.505
-0.736 1.973 -0.50300002
-0.73799998 1.976 -0.50099999
-0.73799998 1.977 -0.49900001
-0.73699999 1.975 -0.49700001
-0.736 1.974 -0.49399999
-0.736 1.975 -0.49200001
-0.73699999 1.978 -0.491
-0.73799998 1.982 -0.49000001
-0.73699999 1.983 -0.44499999
-0.73699999 1.984 -0.44299999
-0.73699999 1.984 -0.44100001
-0.73699999 1.9859999 -0.43900001
-0.73699999 1.9859999 -0.43700001
-0.73699999 1.9859999 -0.43399999
-0.73699999 1.9859999 -0.43200001
-0.73699999 1.987 -0.43000001
-0.73699999 1.988 -0.428
-0.73799998 1.989 -0.42699999
-0.73799998 1.9910001 -0.42500001
-0.73900002 1.993 -0.42300001
-0.73900002 1.994 -0.421
-0.73900002 1.995 -0.419
-0.74000001 1.9960001 -0.417
-0.74000001 1.997 -0.41499999
-0.74000001 1.998 -0.41299999
-0.741 2 -0.412
-0.755 2.043 -0.37400001
-0.75400001 2.0409999 -0.37200001
-0.75400001 2.0420001 -0.37
-0.755 2.0450001 -0.368
-0.755 2.0469999 -0.366
-0.75599998 2.0480001 -0.36500001
-0.75599998 2.05 -0.36300001
-0.75700003 2.052 -0.361
-0.75800002 2.0550001 -0.359
-0.759 2.0580001 -0.35800001
-0.76099998 2.062 -0.35600001
-0.78500003 2.132 -0.329
-0.78600001 2.1370001 -0.32800001
-0.78899997 2.142 -0.32699999
-0.73199999 1.9680001 -0.51899999
-0.73199999 1.97 -0.51700002
-0.73299998 1.971 -0.51499999
-0.73299998 1.972 -0.51300001
-0.73299998 1.972 -0.51099998
-0.73299998 1.972 -0.509
-0.73299998 1.972 -0.50700003
-0.73299998 1.974 -0.505
-0.73400003 1.976 -0.50400001
-0.73500001 1.98 -0.50199997
-0.736 1.982 -0.5
-0.73500001 1.9809999 -0.498
-0.73500001 1.98 -0.49599999
-0.73500001 1.9809999 -0.49399999
-0.736 1.984 -0.49200001
-0.73400003 1.9859999 -0.44600001
-0.73400003 1.987 -0.44400001
-0.73400003 1.988 -0.442
-0.73400003 1.989 -0.44
-0.73400003 1.989 -0.43700001
-0.73400003 1.988 -0.435
-0.73400003 1.988 -0.43200001
-0.73400003 1.987 -0.43000001
-0.73400003 1.988 -0.428
-0.73500001 1.99 -0.42699999
-0.73500001 1.9910001 -0.42500001
-0.73500001 1.992 -0.42300001
-0.73500001 1.993 -0.421
-0.73500001 1.994 -0.419
-0.736 1.994 -0.41600001
-0.736 1.995 -0.414
-0.75400001 2.05 -0.375
-0.75300002 2.0480001 -0.373
-0.75199997 2.0480001 -0.37099999
-0.75199997 2.049 -0.36899999
-0.75300002 2.0510001 -0.36700001
-0.75400001 2.053 -0.36500001
-0.75400001 2.0550001 -0.36399999
-0.75599998 2.0569999 -0.36199999
-0.75700003 2.0599999 -0.36000001
-0.75800002 2.0639999 -0.35800001
-0.78299999 2.1370001 -0.33899999
-0.78200001 2.1329999 -0.336
-0.78200001 2.1340001 -0.33399999
-0.78200001 2.135 -0.33199999
-0.78299999 2.138 -0.33000001
-0.78500003 2.1429999 -0.329
-0.78799999 2.1500001 -0.32800001
-0.72799999 1.9680001 -0.51800001
-0.72899997 1.97 -0.51700002
-0.73000002 1.972 -0.51499999
-0.73000002 1.974 -0.51300001
-0.73000002 1.974 -0.51200002
-0.73000002 1.973 -0.509
-0.73000002 1.974 -0.50700003
-0.73000002 1.976 -0.50599998
-0.73100001 1.979 -0.50400001
-0.73299998 1.983 -0.50300002
-0.73299998 1.985 -0.50099999
-0.73199999 1.984 -0.498
-0.73199999 1.984 -0.49599999
-0.73299998 1.985 -0.49399999
-0.73100001 1.989 -0.44600001
-0.73199999 1.99 -0.44400001
-0.73199999 1.9910001 -0.442
-0.73199999 1.9910001 -0.44
-0.73199999 1.9910001 -0.43799999
-0.73100001 1.9910001 -0.435
-0.73100001 1.99 -0.433
-0.73000002 1.988 -0.43000001
-0.73000002 1.989 -0.428
-0.73100001 1.9910001 -0.42699999
-0.73199999 1.993 -0.42500001
-0.73199999 1.993 -0.42300001
-0.73199999 1.993 -0.421
-0.73199999 1.993 -0.41800001
-0.73199999 1.994 -0.41600001
-0.73199999 1.995 -0.414
-0.75199997 2.056 -0.37200001
-0.75099999 2.0550001 -0.37
-0.75099999 2.0569999 -0.368
-0.75199997 2.059 -0.366
-0.75300002 2.0610001 -0.36399999
-0.75400001 2.063 -0.36199999
-0.755 2.0669999 -0.361
-0.77999997 2.1389999 -0.33700001
-0.77999997 2.1389999 -0.33500001
-0.77999997 2.1400001 -0.333
-0.78100002 2.141 -0.331
-0.78200001 2.1459999 -0.329
-0.78500003 2.154 -0.32800001
-0.78799999 2.1619999 -0.32699999
-0.72500002 1.97 -0.514
-0.72600001 1.972 -0.51300001
-0.72600001 1.973 -0.51099998
-0.72600001 1.973 -0.509
-0.72600001 1.974 -0.50700003
-0.727 1.976 -0.50599998
-0.72799999 1.98 -0.50400001
-0.73000002 1.984 -0.50300002
-0.73000002 1.9859999 -0.50099999
-0.73000002 1.985 -0.49900001
-0.72899997 1.985 -0.49700001
-0.72899997 1.987 -0.495
-0.72899997 1.9910001 -0.44600001
-0.72899997 1.992 -0.44400001
-0.72899997 1.993 -0.442
-0.72899997 1.993 -0.44
-0.72899997 1.993 -0.43799999
-0.72899997 1.993 -0.435
-0.72799999 1.992 -0.433
-0.727 1.99 -0.43000001
-0.727 1.9910001 -0.428
-0.72799999 1.993 -0.42699999
-0.72899997 1.994 -0.42500001
-0.72899997 1.995 -0.42300001
-0.72899997 1.995 -0.421
-0.72899997 1.995 -0.419
-0.72899997 1.9960001 -0.417
-0.72899997 1.997 -0.41499999
-0.77700001 2.142 -0.338
-0.77700001 2.141 -0.33500001
-0.77700001 2.141 -0.333
-0.77700001 2.1429999 -0.331
-0.77899998 2.148 -0.33000001
-0.78200001 2.1570001 -0.32800001
-0.78500003 2.165 -0.32699999
-0.71899998 1.965 -0.51300001
-0.72100002 1.969 -0.51200002
-0.72100002 1.97 -0.50999999
-0.72100002 1.97 -0.50800002
-0.72100002 1.972 -0.50599998
-0.722 1.974 -0.505
-0.72299999 1.977 -0.50300002
-0.72399998 1.98 -0.50199997
-0.72500002 1.982 -0.5
-0.72500002 1.9809999 -0.49700001
-0.72500002 1.982 -0.495
-0.72500002 1.983 -0.49399999
-0.72600001 1.993 -0.44600001
-0.72600001 1.995 -0.44499999
-0.72600001 1.9960001 -0.44299999
-0.72600001 1.9960001 -0.44
-0.72600001 1.997 -0.43799999
-0.72600001 1.997 -0.43599999
-0.72600001 1.9960001 -0.43399999
-0.72500002 1.993 -0.43099999
-0.72500002 1.993 -0.42899999
-0.72500002 1.995 -0.42699999
-0.72500002 1.9960001 -0.42500001
-0.72500002 1.995 -0.42300001
-0.72500002 1.995 -0.421
-0.72500002 1.995 -0.41800001
-0.72500002 1.9960001 -0.41600001
-0.72600001 1.999 -0.41499999
-0.77399999 2.1440001 -0.338
-0.77399999 2.1440001 -0.33500001
-0.77399999 2.1440001 -0.333
-0.77399999 2.145 -0.331
-0.77600002 2.1500001 -0.33000001
-0.77899998 2.158 -0.32800001
-0.78100002 2.165 -0.32699999
-0.78399998 2.171 -0.32600001
-0.71600002 1.966 -0.51300001
-0.71700001 1.969 -0.51200002
-0.71799999 1.97 -0.50999999
-0.71799999 1.971 -0.50800002
-0.71799999 1.972 -0.50599998
-0.71899998 1.975 -0.505
-0.72000003 1.977 -0.50300002
-0.72100002 1.98 -0.50199997
-0.72100002 1.982 -0.5
-0.72100002 1.982 -0.49700001
-0.72100002 1.982 -0.495
-0.72100002 1.983 -0.493
-0.722 1.995 -0.44600001
-0.72299999 1.997 -0.44499999
-0.72299999 1.998 -0.44299999
-0.72299999 1.998 -0.44100001
-0.72299999 1.998 -0.43900001
-0.72299999 1.998 -0.43599999
-0.722 1.9960001 -0.43399999
-0.72100002 1.993 -0.43099999
-0.72100002 1.993 -0.428
-0.722 1.995 -0.42699999
-0.722 1.9960001 -0.42500001
-0.722 1.997 -0.42300001
-0.722 1.997 -0.421
-0.722 1.997 -0.419
-0.77399999 2.154 -0.34400001
-0.77200001 2.148 -0.34099999
-0.76999998 2.145 -0.338
-0.76999998 2.145 -0.33500001
-0.77100003 2.1470001 -0.333
-0.773 2.152 -0.33199999
-0.77499998 2.158 -0.331
-0.778 2.168 -0.33000001
-0.77999997 2.174 -0.32800001
-0.78100002 2.177 -0.32699999
-0.713 1.966 -0.51300001
-0.713 1.9680001 -0.51099998
-0.71399999 1.97 -0.50999999
-0.71399999 1.971 -0.50800002
-0.71499997 1.973 -0.50599998
-0.71499997 1.974 -0.50400001
-0.71600002 1.976 -0.50300002
-0.71700001 1.979 -0.50099999
-0.71899998 1.995 -0.44600001
-0.71899998 1.9960001 -0.44400001
-0.72000003 1.997 -0.442
-0.72000003 1.998 -0.44
-0.71899998 1.998 -0.43799999
-0.71899998 1.997 -0.43599999
-0.71899998 1.9960001 -0.43399999
-0.71799999 1.994 -0.43099999
-0.71799999 1.995 -0.42899999
-0.71899998 1.998 -0.428
-0.83600003 2.3280001 -0.44999999
-0.83600003 2.329 -0.44800001
-0.83600003 2.329 -0.44600001
-0.83600003 2.329 -0.44299999
-0.83399999 2.326 -0.44
-0.76800001 2.1489999 -0.34299999
-0.76700002 2.145 -0.34
-0.76599997 2.145 -0.338
-0.76700002 2.1470001 -0.336
-0.76800001 2.151 -0.33399999
-0.76999998 2.1559999 -0.333
-0.77200001 2.1619999 -0.331
-0.77600002 2.171 -0.33000001
-0.77700001 2.1760001 -0.329
-0.778 2.1800001 -0.32699999
-0.70999998 1.97 -0.509
-0.71100003 1.971 -0.50800002
-0.71100003 1.973 -0.50599998
-0.71100003 1.974 -0.50400001
-0.71600002 1.997 -0.43399999
-0.71499997 1.997 -0.43099999
-0.833 2.3299999 -0.46599999
-0.833 2.3310001 -0.463
-0.833 2.3310001 -0.461
-0.833 2.3310001 -0.45899999
-0.833 2.3310001 -0.456
-0.833 2.332 -0.454
-0.833 2.332 -0.45100001
-0.833 2.332 -0.449
-0.833 2.332 -0.44600001
-0.833 2.332 -0.44400001
-0.83200002 2.3299999 -0.44100001
-0.82999998 2.325 -0.43700001
-0.76599997 2.154 -0.34799999
-0.764 2.1470001 -0.34400001
-0.76200002 2.1429999 -0.34200001
-0.76200002 2.142 -0.33899999
-0.76200002 2.145 -0.33700001
-0.764 2.1500001 -0.336
-0.76599997 2.154 -0.33399999
-0.76700002 2.1589999 -0.333
-0.76999998 2.165 -0.331
-0.77200001 2.1730001 -0.33000001
-0.77399999 2.1789999 -0.329
-0.83200002 2.3369999 -0.477
-0.83200002 2.3380001 -0.47400001
-0.83200002 2.3380001 -0.472
-0.83200002 2.3369999 -0.46900001
-0.83099997 2.3369999 -0.46700001
-0.83099997 2.3380001 -0.46399999
-0.83099997 2.3369999 -0.46200001
-0.82999998 2.336 -0.45899999
-0.82999998 2.336 -0.45699999
-0.82999998 2.336 -0.454
-0.82999998 2.336 -0.45199999
-0.82999998 2.335 -0.449
-0.829 2.3340001 -0.447
-0.829 2.3340001 -0.44400001
-0.82800001 2.332 -0.44100001
-0.82599998 2.3280001 -0.43799999
-0.75999999 2.148 -0.34900001
-0.75700003 2.1400001 -0.34599999
-0.75700003 2.138 -0.34299999
-0.75700003 2.1389999 -0.34099999
-0.75700003 2.141 -0.33899999
-0.759 2.145 -0.33700001
-0.76099998 2.152 -0.336
-0.76300001 2.158 -0.33399999
-0.76499999 2.1630001 -0.333
-0.76800001 2.171 -0.33199999
-0.77100003 2.1819999 -0.331
-0.82800001 2.3399999 -0.477
-0.82800001 2.339 -0.47400001
-0.82800001 2.339 -0.472
-0.82800001 2.339 -0.46900001
-0.82700002 2.339 -0.46700001
-0.82700002 2.3380001 -0.46399999
-0.82700002 2.3380001 -0.46200001
-0.82599998 2.3380001 -0.45899999
-0.82599998 2.3380001 -0.45699999
-0.82599998 2.3380001 -0.454
-0.82599998 2.3380001 -0.45199999
-0.82599998 2.3380001 -0.449
-0.82599998 2.3380001 -0.447
-0.82599998 2.3380001 -0.44400001
-0.82499999 2.336 -0.44100001
-0.82300001 2.3299999 -0.43799999
-0.755 2.1429999 -0.35100001
-0.75300002 2.138 -0.34799999
-0.75199997 2.135 -0.345
-0.75199997 2.1359999 -0.34200001
-0.75300002 2.1370001 -0.34
-0.75300002 2.1389999 -0.338
-0.755 2.1429999 -0.33700001
-0.75700003 2.151 -0.336
-0.75999999 2.1600001 -0.33500001
-0.764 2.171 -0.33399999
-0.76700002 2.1800001 -0.333
-0.829 2.3399999 -0.56800002
-0.829 2.3410001 -0.56599998
-0.829 2.3410001 -0.56400001
-0.829 2.342 -0.56099999
-0.829 2.3429999 -0.55900002
-0.82999998 2.345 -0.55699998
-0.82999998 2.345 -0.55400002
-0.829 2.3429999 -0.551
-0.829 2.342 -0.54900002
-0.829 2.3440001 -0.546
-0.829 2.345 -0.54400003
-0.829 2.3440001 -0.54100001
-0.824 2.339 -0.48199999
-0.82499999 2.342 -0.47999999
-0.82499999 2.3440001 -0.47799999
-0.82499999 2.3429999 -0.47499999
-0.82499999 2.3429999 -0.472
-0.824 2.342 -0.47
-0.824 2.342 -0.46700001
-0.824 2.3410001 -0.465
-0.824 2.3410001 -0.46200001
-0.82300001 2.3410001 -0.46000001
-0.82300001 2.3410001 -0.45699999
-0.82300001 2.3399999 -0.454
-0.82300001 2.3399999 -0.45199999
-0.82300001 2.3399999 -0.449
-0.82200003 2.3399999 -0.447
-0.82200003 2.3399999 -0.44400001
-0.82099998 2.336 -0.44100001
-0.81800002 2.3280001 -0.43700001
-0.75 2.141 -0.352
-0.74800003 2.1359999 -0.34900001
-0.74800003 2.1340001 -0.347
-0.74800003 2.1329999 -0.34400001
-0.74800003 2.135 -0.34200001
-0.74800003 2.1370001 -0.34
-0.75 2.1400001 -0.33899999
-0.75199997 2.1459999 -0.33700001
-0.755 2.155 -0.336
-0.76300001 2.177 -0.33500001
-0.76599997 2.187 -0.33399999
-0.82599998 2.3429999 -0.574
-0.82499999 2.342 -0.57099998
-0.82499999 2.342 -0.56800002
-0.82499999 2.3429999 -0.56599998
-0.82599998 2.3440001 -0.56400001
-0.82599998 2.3440001 -0.56199998
-0.82599998 2.346 -0.55900002
-0.82700002 2.348 -0.55699998
-0.82599998 2.3469999 -0.55400002
-0.82599998 2.345 -0.55199999
-0.82499999 2.345 -0.54900002
-0.82599998 2.346 -0.54699999
-0.82599998 2.3469999 -0.54400003
-0.82499999 2.346 -0.54100001
-0.82499999 2.346 -0.53899997
-0.824 2.345 -0.53600001
-0.81999999 2.3399999 -0.48199999
-0.82099998 2.3429999 -0.47999999
-0.82200003 2.345 -0.47799999
-0.82200003 2.345 -0.47499999
-0.82099998 2.3440001 -0.47299999
-0.82099998 2.3440001 -0.47
-0.81999999 2.3429999 -0.46799999
-0.81999999 2.342 -0.465
-0.81999999 2.342 -0.46200001
-0.81999999 2.342 -0.46000001
-0.81900001 2.3410001 -0.45699999
-0.81900001 2.3399999 -0.454
-0.81800002 2.339 -0.45199999
-0.81800002 2.339 -0.449
-0.81800002 2.3380001 -0.447
-0.81699997 2.3369999 -0.44400001
-0.815 2.332 -0.44
-0.745 2.1370001 -0.354
-0.74400002 2.1329999 -0.35100001
-0.74299997 2.131 -0.34799999
-0.74299997 2.131 -0.34599999
-0.74299997 2.132 -0.34400001
-0.74400002 2.1340001 -0.34200001
-0.745 2.138 -0.34
-0.74699998 2.1429999 -0.33899999
-0.74900001 2.1500001 -0.338
-0.75199997 2.1600001 -0.33700001
-0.75999999 2.1830001 -0.336
-0.82200003 2.3429999 -0.579
-0.82200003 2.345 -0.57700002
-0.82200003 2.345 -0.574
-0.82200003 2.3440001 -0.57099998
-0.82200003 2.3440001 -0.56900001
-0.82200003 2.345 -0.56599998
-0.82200003 2.346 -0.56400001
-0.82200003 2.3469999 -0.56199998
-0.82300001 2.348 -0.56
-0.82300001 2.349 -0.55699998
-0.82300001 2.349 -0.55500001
-0.82200003 2.348 -0.55199999
-0.82200003 2.348 -0.54900002
-0.82200003 2.349 -0.54699999
-0.82200003 2.349 -0.54400003
-0.82200003 2.348 -0.542
-0.82099998 2.3469999 -0.53899997
-0.82099998 2.3469999 -0.53600001
-0.81999999 2.345 -0.53299999
-0.81599998 2.3399999 -0.48199999
-0.81699997 2.3440001 -0.47999999
-0.81800002 2.346 -0.47799999
-0.81800002 2.345 -0.47499999
-0.81699997 2.345 -0.47299999
-0.81699997 2.3440001 -0.47
-0.81599998 2.3429999 -0.46799999
-0.81599998 2.342 -0.465
-0.81599998 2.342 -0.46200001
-0.81599998 2.342 -0.45899999
-0.815 2.3410001 -0.45699999
-0.81400001 2.339 -0.454
-0.81300002 2.3369999 -0.45100001
-0.81300002 2.3369999 -0.449
-0.81199998 2.335 -0.44600001
-0.81099999 2.3310001 -0.44299999
-0.74000001 2.1340001 -0.35499999
-0.73900002 2.1300001 -0.352
-0.73799998 2.128 -0.34999999
-0.73799998 2.128 -0.34799999
-0.73799998 2.1289999 -0.34599999
-0.73900002 2.132 -0.34400001
-0.74000001 2.1359999 -0.34200001
-0.74199998 2.141 -0.34099999
-0.74400002 2.1470001 -0.33899999
-0.74699998 2.155 -0.338
-0.75400001 2.1760001 -0.33700001
-0.75800002 2.187 -0.336
-0.81800002 2.3440001 -0.579
-0.81800002 2.346 -0.57599998
-0.81900001 2.346 -0.574
-0.81900001 2.346 -0.57099998
-0.81800002 2.346 -0.56900001
-0.81800002 2.346 -0.56599998
-0.81800002 2.3469999 -0.56400001
-0.81800002 2.348 -0.56199998
-0.81900001 2.349 -0.56
-0.81900001 2.349 -0.55699998
-0.81900001 2.349 -0.55500001
-0.81900001 2.349 -0.55199999
-0.81900001 2.3499999 -0.55000001
-0.81900001 2.3510001 -0.54699999
-0.81800002 2.3510001 -0.54500002
-0.81800002 2.349 -0.542
-0.81699997 2.3469999 -0.53899997
-0.81599998 2.346 -0.53600001
-0.81199998 2.342 -0.48199999
-0.81400001 2.346 -0.48100001
-0.81400001 2.3469999 -0.47799999
-0.81400001 2.346 -0.47499999
-0.81300002 2.345 -0.47299999
-0.81199998 2.3440001 -0.47
-0.81199998 2.3440001 -0.46799999
-0.81199998 2.3429999 -0.465
-0.81199998 2.3429999 -0.46200001
-0.81099999 2.342 -0.45899999
-0.81099999 2.3399999 -0.456
-0.80900002 2.3369999 -0.45300001
-0.80900002 2.335 -0.44999999
-0.80800003 2.3329999 -0.44800001
-0.73500001 2.1270001 -0.35699999
-0.73400003 2.1259999 -0.354
-0.73299998 2.125 -0.352
-0.73299998 2.125 -0.34900001
-0.73400003 2.1259999 -0.347
-0.73400003 2.1289999 -0.345
-0.736 2.1329999 -0.34400001
-0.73799998 2.1389999 -0.34299999
-0.74000001 2.1459999 -0.34200001
-0.74299997 2.154 -0.34099999
-0.74900001 2.1719999 -0.33899999
-0.75199997 2.181 -0.338
-0.755 2.1889999 -0.33700001
-0.815 2.349 -0.57999998
-0.815 2.349 -0.57700002
-0.815 2.349 -0.57499999
-0.815 2.349 -0.57200003
-0.81400001 2.349 -0.56999999
-0.81400001 2.349 -0.56699997
-0.815 2.3499999 -0.565
-0.815 2.3499999 -0.56199998
-0.815 2.3510001 -0.56
-0.815 2.352 -0.55699998
-0.815 2.3529999 -0.55500001
-0.815 2.3529999 -0.55199999
-0.815 2.3529999 -0.55000001
-0.815 2.3529999 -0.54699999
-0.815 2.3529999 -0.54500002
-0.81400001 2.3510001 -0.542
-0.81300002 2.349 -0.53899997
-0.81199998 2.346 -0.53600001
-0.80800003 2.3410001 -0.48100001
-0.80800003 2.3440001 -0.47999999
-0.80900002 2.345 -0.47799999
-0.80900002 2.3440001 -0.47499999
-0.80800003 2.3410001 -0.472
-0.80599999 2.3380001 -0.46900001
-0.80599999 2.336 -0.46599999
-0.80500001 2.335 -0.463
-0.80500001 2.335 -0.46000001
-0.80500001 2.336 -0.458
-0.72899997 2.122 -0.35499999
-0.72899997 2.122 -0.35299999
-0.72899997 2.1229999 -0.35100001
-0.72899997 2.1240001 -0.34900001
-0.73000002 2.1270001 -0.347
-0.73199999 2.131 -0.34599999
-0.73299998 2.1359999 -0.34400001
-0.73500001 2.142 -0.34299999
-0.73799998 2.1500001 -0.34200001
-0.74400002 2.168 -0.34
-0.74699998 2.177 -0.33899999
-0.74900001 2.184 -0.338
-0.75099999 2.1889999 -0.33700001
-0.81099999 2.3469999 -0.579
-0.81099999 2.348 -0.57700002
-0.81099999 2.348 -0.574
-0.81 2.3469999 -0.57200003
-0.81 2.3469999 -0.56900001
-0.81 2.349 -0.56699997
-0.81099999 2.3499999 -0.56400001
-0.81099999 2.352 -0.56300002
-0.81199998 2.3540001 -0.56
-0.81199998 2.355 -0.55800003
-0.81199998 2.3559999 -0.55599999
-0.81300002 2.3570001 -0.55299997
-0.81300002 2.358 -0.551
-0.81199998 2.358 -0.54900002
-0.81199998 2.3570001 -0.546
-0.81099999 2.355 -0.54299998
-0.81 2.352 -0.54000002
-0.72399998 2.1199999 -0.35499999
-0.72399998 2.1210001 -0.35299999
-0.72500002 2.1229999 -0.35100001
-0.72600001 2.1259999 -0.34900001
-0.727 2.1289999 -0.347
-0.72799999 2.1340001 -0.34599999
-0.73000002 2.1389999 -0.34400001
-0.73299998 2.1459999 -0.34299999
-0.736 2.155 -0.34200001
-0.73900002 2.1659999 -0.34200001
-0.74199998 2.174 -0.34099999
-0.74400002 2.1800001 -0.34
-0.745 2.184 -0.338
-0.74599999 2.188 -0.336
-0.68199998 1.984 -0.50700003
-0.68199998 1.984 -0.50400001
-0.80599999 2.346 -0.574
-0.80500001 2.346 -0.57099998
-0.80500001 2.346 -0.56800002
-0.80599999 2.348 -0.56599998
-0.80699998 2.3510001 -0.56400001
-0.80800003 2.355 -0.56300002
-0.80900002 2.358 -0.56099999
-0.81 2.3610001 -0.55900002
-0.81 2.3629999 -0.55699998
-0.81099999 2.365 -0.55500001
-0.81099999 2.365 -0.55199999
-0.81 2.3629999 -0.55000001
-0.80900002 2.3610001 -0.546
-0.80800003 2.3570001 -0.54299998
-0.72000003 2.119 -0.359
-0.72000003 2.119 -0.35699999
-0.72100002 2.1199999 -0.35499999
-0.72100002 2.122 -0.35299999
-0.722 2.1240001 -0.35100001
-0.72299999 2.128 -0.34900001
-0.72399998 2.132 -0.347
-0.72600001 2.1370001 -0.34599999
-0.72799999 2.1440001 -0.345
-0.73100001 2.152 -0.34400001
-0.73699999 2.171 -0.34200001
-0.73900002 2.178 -0.34099999
-0.74000001 2.1819999 -0.34
-0.741 2.1849999 -0.338
-0.74199998 2.188 -0.336
-0.68000001 1.985 -0.51099998
-0.68000001 1.985 -0.509
-0.68000001 1.985 -0.50700003
-0.67900002 1.985 -0.50400001
-0.69800001 2.0580001 -0.38800001
-0.69599998 2.056 -0.38499999
-0.699 2.0639999 -0.37599999
-0.699 2.0650001 -0.37400001
-0.71700001 2.1199999 -0.36399999
-0.71700001 2.1199999 -0.361
-0.71700001 2.119 -0.359
-0.71700001 2.1199999 -0.35699999
-0.71700001 2.1210001 -0.35499999
-0.71799999 2.1240001 -0.35299999
-0.71899998 2.1270001 -0.35100001
-0.72000003 2.131 -0.34900001
-0.722 2.1359999 -0.34799999
-0.72299999 2.141 -0.347
-0.72600001 2.1489999 -0.34599999
-0.72899997 2.1570001 -0.345
-0.73199999 2.165 -0.34400001
-0.73400003 2.174 -0.34299999
-0.736 2.1800001 -0.34099999
-0.73699999 2.184 -0.34
-0.73799998 2.1860001 -0.338
-0.73799998 2.187 -0.336
-0.67699999 1.9859999 -0.51599997
-0.67699999 1.9859999 -0.51300001
-0.67699999 1.9859999 -0.51099998
-0.67699999 1.987 -0.509
-0.67699999 1.987 -0.50700003
-0.67699999 1.987 -0.505
-0.67699999 1.988 -0.50300002
-0.67699999 1.989 -0.50099999
-0.68300003 2.0190001 -0.44100001
-0.68199998 2.017 -0.43799999
-0.68199998 2.017 -0.43599999
-0.68400002 2.0209999 -0.435
-0.685 2.0239999 -0.433
-0.685 2.0250001 -0.43099999
-0.69300002 2.0539999 -0.389
-0.69099998 2.0510001 -0.38699999
-0.69099998 2.05 -0.384
-0.69199997 2.053 -0.382
-0.69400001 2.0580001 -0.38100001
-0.69499999 2.062 -0.38
-0.69499999 2.063 -0.37799999
-0.69499999 2.0639999 -0.37599999
-0.69599998 2.0650001 -0.37400001
-0.69700003 2.069 -0.37200001
-0.70999998 2.108 -0.368
-0.71100003 2.1110001 -0.366
-0.71100003 2.1140001 -0.36500001
-0.71200001 2.1170001 -0.36300001
-0.71200001 2.118 -0.361
-0.713 2.119 -0.359
-0.713 2.1210001 -0.35699999
-0.71399999 2.1229999 -0.35499999
-0.71399999 2.125 -0.35299999
-0.71600002 2.1300001 -0.352
-0.71799999 2.1359999 -0.35100001
-0.72000003 2.1429999 -0.34900001
-0.722 2.148 -0.34799999
-0.72399998 2.155 -0.347
-0.727 2.1630001 -0.34599999
-0.72899997 2.1700001 -0.345
-0.73100001 2.177 -0.34400001
-0.73299998 2.1819999 -0.34200001
-0.73400003 2.1849999 -0.34
-0.73400003 2.1860001 -0.338
-0.73400003 2.1860001 -0.33500001
-0.67299998 1.987 -0.51599997
-0.67299998 1.987 -0.51300001
-0.67299998 1.987 -0.51099998
-0.67299998 1.988 -0.509
-0.67299998 1.988 -0.50700003
-0.67299998 1.989 -0.505
-0.67299998 1.99 -0.50300002
-0.67299998 1.9910001 -0.50099999
-0.68000001 2.02 -0.44100001
-0.68000001 2.0190001 -0.43799999
-0.68000001 2.02 -0.43599999
-0.68099999 2.0239999 -0.435
-0.68199998 2.026 -0.433
-0.68199998 2.0280001 -0.43200001
-0.68800002 2.052 -0.391
-0.68699998 2.049 -0.38800001
-0.68699998 2.0480001 -0.38600001
-0.68699998 2.0480001 -0.38299999
-0.68800002 2.0510001 -0.382
-0.69 2.0580001 -0.38100001
-0.69 2.0599999 -0.37900001
-0.69 2.059 -0.37599999
-0.69 2.0610001 -0.375
-0.69199997 2.0650001 -0.37400001
-0.69400001 2.072 -0.373
-0.70599997 2.1059999 -0.37
-0.70599997 2.108 -0.368
-0.70700002 2.1110001 -0.366
-0.708 2.1140001 -0.36500001
-0.70899999 2.1170001 -0.36300001
-0.70899999 2.119 -0.361
-0.70999998 2.1210001 -0.359
-0.70999998 2.1229999 -0.35699999
-0.71100003 2.1259999 -0.35499999
-0.71200001 2.1289999 -0.354
-0.71399999 2.1340001 -0.352
-0.71600002 2.142 -0.35100001
-0.71799999 2.1489999 -0.34999999
-0.72100002 2.1559999 -0.34900001
-0.72299999 2.1630001 -0.34799999
-0.72600001 2.1719999 -0.347
-0.72799999 2.178 -0.34599999
-0.72899997 2.1819999 -0.34400001
-0.73000002 2.1849999 -0.34200001
-0.73100001 2.188 -0.34
-0.73199999 2.191 -0.338
-0.671 1.99 -0.51599997
-0.671 1.9910001 -0.514
-0.671 1.9910001 -0.51200002
-0.67000002 1.99 -0.50999999
-0.67000002 1.99 -0.50800002
-0.67000002 1.9910001 -0.505
-0.67000002 1.9910001 -0.50300002
-0.67000002 1.992 -0.50199997
-0.67699999 2.0220001 -0.44100001
-0.67799997 2.023 -0.43900001
-0.67799997 2.0250001 -0.43700001
-0.67900002 2.0280001 -0.43599999
-0.67900002 2.03 -0.43399999
-0.68000001 2.0320001 -0.43200001
-0.68599999 2.0550001 -0.396
-0.68400002 2.05 -0.39199999
-0.68300003 2.0469999 -0.38999999
-0.68300003 2.0480001 -0.38800001
-0.68300003 2.0480001 -0.38600001
-0.68300003 2.049 -0.38299999
-0.68400002 2.0510001 -0.382
-0.68599999 2.056 -0.38
-0.68699998 2.059 -0.37900001
-0.68699998 2.0599999 -0.377
-0.68800002 2.063 -0.375
-0.68900001 2.069 -0.37400001
-0.70300001 2.1099999 -0.37099999
-0.704 2.112 -0.36899999
-0.704 2.115 -0.36700001
-0.70499998 2.1170001 -0.36500001
-0.70499998 2.1199999 -0.36300001
-0.70599997 2.122 -0.361
-0.70700002 2.1240001 -0.359
-0.708 2.128 -0.35800001
-0.70899999 2.131 -0.35600001
-0.71100003 2.1359999 -0.354
-0.71200001 2.141 -0.35299999
-0.71499997 2.148 -0.352
-0.71700001 2.1559999 -0.35100001
-0.71899998 2.164 -0.34999999
-0.722 2.171 -0.34900001
-0.72399998 2.178 -0.34799999
-0.72500002 2.1819999 -0.34599999
-0.72600001 2.1849999 -0.34400001
-0.727 2.187 -0.34200001
-0.72799999 2.1900001 -0.34
-0.671 2 -0.523
-0.66900003 1.994 -0.51899999
-0.66799998 1.992 -0.51599997
-0.66799998 1.992 -0.514
-0.667 1.992 -0.51200002
-0.667 1.992 -0.50999999
-0.667 1.992 -0.50800002
-0.667 1.994 -0.50599998
-0.66799998 1.994 -0.50400001
-0.66799998 1.994 -0.50199997
-0.67400002 2.0239999 -0.44600001
-0.67400002 2.0220001 -0.44299999
-0.67299998 2.0220001 -0.44100001
-0.67400002 2.0239999 -0.43900001
-0.67400002 2.026 -0.43799999
-0.676 2.029 -0.43599999
-0.676 2.0320001 -0.43399999
-0.67699999 2.0350001 -0.433
-0.68000001 2.05 -0.39500001
-0.68000001 2.0469999 -0.39199999
-0.67900002 2.0469999 -0.38999999
-0.68000001 2.049 -0.38800001
-0.68000001 2.05 -0.38600001
-0.68000001 2.05 -0.384
-0.68099999 2.052 -0.382
-0.68199998 2.056 -0.38
-0.68300003 2.059 -0.37900001
-0.68300003 2.0610001 -0.377
-0.69999999 2.112 -0.37099999
-0.69999999 2.1140001 -0.36899999
-0.70099998 2.1170001 -0.36700001
-0.70200002 2.1199999 -0.36500001
-0.70200002 2.122 -0.36300001
-0.70300001 2.125 -0.361
-0.704 2.128 -0.36000001
-0.70599997 2.132 -0.35800001
-0.70700002 2.1359999 -0.35699999
-0.708 2.1400001 -0.35499999
-0.70999998 2.1459999 -0.354
-0.71200001 2.1530001 -0.35299999
-0.71499997 2.1600001 -0.352
-0.71700001 2.1689999 -0.35100001
-0.71899998 2.175 -0.34999999
-0.72000003 2.1789999 -0.34799999
-0.72100002 2.181 -0.34599999
-0.72100002 2.1819999 -0.34400001
-0.667 2 -0.52200001
-0.66600001 1.9960001 -0.51899999
-0.66500002 1.994 -0.51700002
-0.66399997 1.993 -0.514
-0.66399997 1.993 -0.51200002
-0.66399997 1.994 -0.50999999
-0.66399997 1.995 -0.50800002
-0.66399997 1.9960001 -0.50700003
-0.66399997 1.9960001 -0.505
-0.66399997 1.995 -0.50199997
-0.671 2.0239999 -0.44600001
-0.66900003 2.0209999 -0.442
-0.66900003 2.02 -0.44
-0.67000002 2.023 -0.43900001
-0.671 2.026 -0.43700001
-0.67199999 2.029 -0.43599999
-0.67400002 2.0339999 -0.435
-0.676 2.0480001 -0.39399999
-0.676 2.0480001 -0.39199999
-0.676 2.049 -0.38999999
-0.67699999 2.0510001 -0.38800001
-0.67699999 2.052 -0.38600001
-0.67699999 2.052 -0.384
-0.67799997 2.0539999 -0.382
-0.67900002 2.0569999 -0.38
-0.67900002 2.0599999 -0.37900001
-0.68000001 2.063 -0.377
-0.69499999 2.1110001 -0.37
-0.69700003 2.115 -0.36899999
-0.69800001 2.118 -0.36700001
-0.69800001 2.1210001 -0.36500001
-0.699 2.1240001 -0.36300001
-0.69999999 2.1270001 -0.36199999
-0.70200002 2.1300001 -0.36000001
-0.70300001 2.135 -0.359
-0.704 2.1389999 -0.35699999
-0.70599997 2.1429999 -0.35600001
-0.70700002 2.1489999 -0.354
-0.70999998 2.1570001 -0.35299999
-0.71200001 2.164 -0.352
-0.71499997 2.1719999 -0.35100001
-0.71600002 2.177 -0.34999999
-0.71700001 2.178 -0.34799999
-0.66399997 2.0020001 -0.523
-0.66299999 1.999 -0.51999998
-0.662 1.997 -0.51800001
-0.662 1.9960001 -0.51499999
-0.662 1.9960001 -0.51300001
-0.662 1.9960001 -0.51099998
-0.66100001 1.9960001 -0.509
-0.66100001 1.9960001 -0.50599998
-0.66100001 1.9960001 -0.50400001
-0.66100001 1.9960001 -0.50199997
-0.667 2.0250001 -0.44600001
-0.66600001 2.0220001 -0.44299999
-0.66600001 2.0220001 -0.44
-0.667 2.0250001 -0.43900001
-0.66799998 2.0280001 -0.43700001
-0.66900003 2.0320001 -0.43599999
-0.67400002 2.052 -0.39899999
-0.67299998 2.049 -0.396
-0.67299998 2.0480001 -0.39399999
-0.67299998 2.049 -0.39199999
-0.67299998 2.0510001 -0.38999999
-0.67400002 2.053 -0.38800001
-0.67500001 2.0550001 -0.38600001
-0.67500001 2.056 -0.384
-0.67500001 2.0580001 -0.382
-0.676 2.0599999 -0.38100001
-0.67699999 2.0639999 -0.37900001
-0.67799997 2.069 -0.37799999
-0.69199997 2.112 -0.37
-0.69300002 2.1159999 -0.36899999
-0.69400001 2.119 -0.36700001
-0.69499999 2.1229999 -0.366
-0.69599998 2.1259999 -0.36399999
-0.69700003 2.1289999 -0.36199999
-0.69800001 2.132 -0.36000001
-0.69999999 2.1370001 -0.359
-0.70099998 2.142 -0.35699999
-0.70300001 2.1470001 -0.35600001
-0.70499998 2.154 -0.35499999
-0.708 2.1630001 -0.354
-0.70999998 2.1700001 -0.35299999
-0.71200001 2.175 -0.352
-0.713 2.178 -0.34999999
-0.713 2.1789999 -0.34799999
-0.66100001 2.0020001 -0.523
-0.65899998 1.999 -0.51999998
-0.65899998 1.998 -0.51700002
-0.65899998 1.999 -0.51599997
-0.65899998 1.999 -0.514
-0.65899998 1.998 -0.51099998
-0.65799999 1.998 -0.509
-0.65799999 1.999 -0.50700003
-0.65899998 2 -0.505
-0.65899998 2.0009999 -0.50300002
-0.66500002 2.0280001 -0.44600001
-0.66399997 2.0250001 -0.44299999
-0.66399997 2.0250001 -0.44100001
-0.66399997 2.027 -0.43900001
-0.66500002 2.029 -0.43700001
-0.66600001 2.0320001 -0.43599999
-0.671 2.0539999 -0.39899999
-0.66900003 2.05 -0.396
-0.66900003 2.049 -0.39399999
-0.67000002 2.0510001 -0.39199999
-0.671 2.0539999 -0.38999999
-0.671 2.056 -0.389
-0.67199999 2.0580001 -0.38699999
-0.67199999 2.0599999 -0.38499999
-0.67299998 2.0610001 -0.38299999
-0.67299998 2.062 -0.38100001
-0.67500001 2.0669999 -0.38
-0.67699999 2.075 -0.37900001
-0.69 2.1159999 -0.37099999
-0.69099998 2.1199999 -0.36899999
-0.69199997 2.1229999 -0.36700001
-0.69300002 2.1270001 -0.366
-0.69400001 2.131 -0.36399999
-0.69499999 2.135 -0.36300001
-0.69599998 2.138 -0.361
-0.69700003 2.141 -0.36000001
-0.69800001 2.1459999 -0.35800001
-0.69999999 2.151 -0.35699999
-0.70300001 2.158 -0.35499999
-0.70499998 2.1670001 -0.354
-0.70700002 2.1730001 -0.35299999
-0.70899999 2.177 -0.352
-0.70899999 2.1800001 -0.34999999
-0.70899999 2.1789999 -0.347
-0.65799999 2.0050001 -0.523
-0.65799999 2.0039999 -0.52100003
-0.65700001 2.003 -0.51800001
-0.65600002 2.0020001 -0.51599997
-0.65600002 2.0020001 -0.514
-0.65600002 2.0020001 -0.51200002
-0.65600002 2.0020001 -0.50999999
-0.65600002 2.003 -0.50800002
-0.662 2.0309999 -0.447
-0.66100001 2.027 -0.44400001
-0.66000003 2.0250001 -0.44100001
-0.66000003 2.027 -0.43900001
-0.66100001 2.029 -0.43700001
-0.662 2.0320001 -0.43599999
-0.66799998 2.056 -0.40400001
-0.667 2.0539999 -0.40099999
-0.66600001 2.052 -0.398
-0.66600001 2.05 -0.396
-0.66600001 2.05 -0.39399999
-0.667 2.0539999 -0.39300001
-0.66799998 2.0569999 -0.391
-0.66900003 2.059 -0.389
-0.66900003 2.0610001 -0.38699999
-0.67000002 2.063 -0.38600001
-0.67000002 2.0650001 -0.384
-0.671 2.0669999 -0.382
-0.67199999 2.072 -0.38
-0.68699998 2.119 -0.37099999
-0.68900001 2.125 -0.37
-0.69 2.1300001 -0.36899999
-0.69199997 2.135 -0.36700001
-0.69300002 2.1389999 -0.366
-0.69499999 2.1429999 -0.36399999
-0.69599998 2.1470001 -0.36199999
-0.69599998 2.1489999 -0.361
-0.69700003 2.1530001 -0.359
-0.699 2.158 -0.35699999
-0.69999999 2.164 -0.35600001
-0.70200002 2.1689999 -0.35499999
-0.704 2.174 -0.35299999
-0.70499998 2.178 -0.352
-0.65399998 2.006 -0.523
-0.65399998 2.0050001 -0.52100003
-0.65399998 2.0039999 -0.51899999
-0.653 2.003 -0.51599997
-0.653 2.003 -0.514
-0.653 2.003 -0.51200002
-0.65399998 2.0039999 -0.50999999
-0.65399998 2.0050001 -0.50800002
-0.65899998 2.0339999 -0.447
-0.65799999 2.029 -0.44400001
-0.65700001 2.027 -0.44100001
-0.65700001 2.0280001 -0.43900001
-0.65799999 2.03 -0.43700001
-0.65899998 2.0339999 -0.43599999
-0.66299999 2.053 -0.403
-0.66299999 2.053 -0.40099999
-0.66299999 2.052 -0.398
-0.66299999 2.0510001 -0.396
-0.66299999 2.053 -0.39399999
-0.66500002 2.0569999 -0.39300001
-0.66600001 2.0610001 -0.39199999
-0.66600001 2.063 -0.38999999
-0.667 2.066 -0.38800001
-0.66799998 2.0680001 -0.38600001
-0.66799998 2.0699999 -0.38499999
-0.66900003 2.0739999 -0.38299999
-0.671 2.0799999 -0.382
-0.68400002 2.122 -0.37200001
-0.68599999 2.1289999 -0.37
-0.68800002 2.135 -0.36899999
-0.69 2.141 -0.368
-0.69199997 2.1459999 -0.36700001
-0.69300002 2.1500001 -0.36500001
-0.69400001 2.1530001 -0.36399999
-0.69400001 2.154 -0.36199999
-0.69499999 2.1570001 -0.36000001
-0.69599998 2.1619999 -0.35800001
-0.69800001 2.1659999 -0.35600001
-0.699 2.1700001 -0.35499999
-0.69999999 2.1719999 -0.35299999
-0.69999999 2.1730001 -0.35100001
-0.65100002 2.007 -0.52399999
-0.65100002 2.007 -0.52100003
-0.65100002 2.006 -0.51899999
-0.65100002 2.0050001 -0.51700002
-0.64999998 2.0050001 -0.51499999
-0.64999998 2.0050001 -0.51200002
-0.65100002 2.006 -0.50999999
-0.65100002 2.0079999 -0.509
-0.65700001 2.036 -0.44800001
-0.65499997 2.0320001 -0.44400001
-0.65499997 2.03 -0.442
-0.65399998 2.03 -0.43900001
-0.65499997 2.033 -0.43799999
-0.65700001 2.039 -0.43700001
-0.66000003 2.053 -0.403
-0.66000003 2.0539999 -0.40099999
-0.66000003 2.0550001 -0.39899999
-0.66000003 2.0550001 -0.396
-0.66100001 2.0569999 -0.39500001
-0.662 2.062 -0.39399999
-0.66399997 2.066 -0.39199999
-0.66500002 2.0699999 -0.391
-0.66500002 2.073 -0.389
-0.66600001 2.0739999 -0.38699999
-0.667 2.0780001 -0.38600001
-0.66900003 2.0829999 -0.38499999
-0.68199998 2.1259999 -0.37200001
-0.68300003 2.132 -0.37099999
-0.68599999 2.1389999 -0.37
-0.68800002 2.145 -0.36899999
-0.69 2.151 -0.368
-0.69099998 2.155 -0.366
-0.69099998 2.1570001 -0.36399999
-0.69099998 2.1589999 -0.36199999
-0.69199997 2.161 -0.36000001
-0.69300002 2.164 -0.35800001
-0.69400001 2.168 -0.35600001
-0.69499999 2.171 -0.35499999
-0.64999998 2.013 -0.52499998
-0.64999998 2.0120001 -0.52200001
-0.64899999 2.0120001 -0.51999998
-0.64899999 2.0109999 -0.51800001
-0.64899999 2.01 -0.51599997
-0.64899999 2.01 -0.51300001
-0.64899999 2.0109999 -0.51099998
-0.64899999 2.0120001 -0.50999999
-0.65399998 2.039 -0.44800001
-0.65200001 2.0339999 -0.44400001
-0.65200001 2.0320001 -0.442
-0.65200001 2.033 -0.44
-0.65700001 2.0539999 -0.403
-0.65700001 2.056 -0.40099999
-0.65799999 2.0580001 -0.39899999
-0.65799999 2.0599999 -0.39700001
-0.65899998 2.063 -0.396
-0.66000003 2.0669999 -0.39500001
-0.662 2.072 -0.39300001
-0.66399997 2.0780001 -0.39199999
-0.66500002 2.082 -0.38999999
-0.66600001 2.0840001 -0.389
-0.67900002 2.128 -0.375
-0.68099999 2.1340001 -0.373
-0.68199998 2.1389999 -0.37200001
-0.68400002 2.145 -0.37099999
-0.68599999 2.151 -0.37
-0.68699998 2.1559999 -0.368
-0.68800002 2.1600001 -0.36700001
-0.68900001 2.1630001 -0.36500001
-0.69 2.164 -0.36300001
-0.69 2.1659999 -0.361
-0.69 2.168 -0.359
-0.69099998 2.171 -0.35699999
-0.69199997 2.1730001 -0.35499999
-0.64600003 2.013 -0.52499998
-0.64600003 2.0120001 -0.52200001
-0.64499998 2.0120001 -0.51999998
-0.64499998 2.0109999 -0.51800001
-0.64499998 2.01 -0.51599997
-0.64499998 2.01 -0.51300001
-0.64499998 2.01 -0.51099998
-0.64499998 2.0120001 -0.509
-0.65100002 2.039 -0.44800001
-0.64899999 2.0350001 -0.44400001
-0.64899999 2.0339999 -0.442
-0.64899999 2.0350001 -0.44
-0.65399998 2.0569999 -0.403
-0.65399998 2.059 -0.40200001
-0.65499997 2.0610001 -0.40000001
-0.65600002 2.0650001 -0.39899999
-0.65700001 2.069 -0.39700001
-0.65799999 2.073 -0.396
-0.66000003 2.0780001 -0.39399999
-0.662 2.0829999 -0.39300001
-0.67299998 2.1210001 -0.389
-0.67400002 2.122 -0.38699999
-0.67699999 2.1340001 -0.37799999
-0.67799997 2.1389999 -0.377
-0.68000001 2.1440001 -0.375
-0.68099999 2.1500001 -0.37400001
-0.68300003 2.155 -0.37200001
-0.68400002 2.1600001 -0.37099999
-0.68599999 2.165 -0.37
-0.68699998 2.168 -0.368
-0.68699998 2.171 -0.366
-0.68800002 2.1719999 -0.36399999
-0.68800002 2.1730001 -0.36199999
-0.68800002 2.174 -0.36000001
-0.68800002 2.174 -0.35800001
-0.68800002 2.1719999 -0.35499999
-0.64300001 2.0139999 -0.52499998
-0.64300001 2.0150001 -0.523
-0.64300001 2.0139999 -0.52100003
-0.64200002 2.0120001 -0.51800001
-0.64099997 2.0109999 -0.51599997
-0.64099997 2.0090001 -0.51300001
-0.64099997 2.0090001 -0.50999999
-0.64099997 2.0090001 -0.50800002
-0.64600003 2.0369999 -0.447
-0.64499998 2.0339999 -0.44400001
-0.64499998 2.0339999 -0.442
-0.64600003 2.036 -0.44100001
-0.65100002 2.0580001 -0.403
-0.65100002 2.0610001 -0.40200001
-0.653 2.0639999 -0.40000001
-0.65399998 2.069 -0.39899999
-0.65499997 2.073 -0.398
-0.65600002 2.0780001 -0.396
-0.65799999 2.0840001 -0.39500001
-0.66900003 2.1199999 -0.39300001
-0.67199999 2.128 -0.39199999
-0.67299998 2.131 -0.391
-0.67199999 2.128 -0.38800001
-0.671 2.1270001 -0.38499999
-0.67199999 2.1289999 -0.38299999
-0.67299998 2.132 -0.382
-0.67400002 2.1359999 -0.38
-0.676 2.141 -0.37900001
-0.67699999 2.1470001 -0.37799999
-0.67900002 2.152 -0.37599999
-0.68000001 2.1570001 -0.375
-0.68199998 2.1619999 -0.373
-0.68300003 2.168 -0.37200001
-0.685 2.1730001 -0.37099999
-0.685 2.174 -0.36899999
-0.68599999 2.1760001 -0.36700001
-0.68599999 2.1789999 -0.36500001
-0.63999999 2.017 -0.52499998
-0.63999999 2.016 -0.523
-0.639 2.0150001 -0.52100003
-0.63800001 2.013 -0.51800001
-0.63800001 2.0120001 -0.51599997
-0.63700002 2.01 -0.51200002
-0.63700002 2.0090001 -0.50999999
-0.63700002 2.0079999 -0.50800002
-0.64300001 2.0369999 -0.456
-0.64300001 2.0380001 -0.454
-0.64300001 2.0380001 -0.45199999
-0.64200002 2.036 -0.449
-0.64200002 2.0350001 -0.44600001
-0.64099997 2.0339999 -0.44400001
-0.64200002 2.0350001 -0.442
-0.64200002 2.0380001 -0.44100001
-0.648 2.0580001 -0.412
-0.64700001 2.056 -0.40900001
-0.64700001 2.056 -0.40700001
-0.64700001 2.0569999 -0.405
-0.648 2.0599999 -0.40400001
-0.64899999 2.0639999 -0.40200001
-0.64999998 2.0680001 -0.40099999
-0.65200001 2.073 -0.40000001
-0.66600001 2.1199999 -0.39500001
-0.66799998 2.1289999 -0.39399999
-0.66900003 2.1329999 -0.39300001
-0.66900003 2.1329999 -0.391
-0.66799998 2.1289999 -0.38800001
-0.66799998 2.1289999 -0.38600001
-0.66900003 2.132 -0.384
-0.67000002 2.1359999 -0.382
-0.67199999 2.141 -0.38100001
-0.67299998 2.1459999 -0.38
-0.67500001 2.152 -0.37900001
-0.676 2.1570001 -0.377
-0.67799997 2.161 -0.375
-0.67900002 2.1659999 -0.37400001
-0.68099999 2.1730001 -0.373
-0.68199998 2.177 -0.37099999
-0.68300003 2.178 -0.36899999
-0.68300003 2.1800001 -0.36700001
-0.68300003 2.1819999 -0.36500001
-0.63700002 2.02 -0.52600002
-0.63599998 2.017 -0.523
-0.63599998 2.016 -0.52100003
-0.63499999 2.0150001 -0.51800001
-0.63499999 2.0139999 -0.51599997
-0.63499999 2.013 -0.51300001
-0.634 2.0109999 -0.51099998
-0.63300002 2.01 -0.50800002
-0.63300002 2.0090001 -0.50599998
-0.63200003 2.007 -0.50300002
-0.63800001 2.033 -0.45899999
-0.63800001 2.033 -0.45699999
-0.63800001 2.0339999 -0.45500001
-0.63800001 2.0350001 -0.45300001
-0.63800001 2.0350001 -0.45100001
-0.63800001 2.0339999 -0.44800001
-0.63800001 2.0339999 -0.44600001
-0.63800001 2.0339999 -0.44400001
-0.63800001 2.036 -0.442
-0.639 2.04 -0.44100001
-0.64099997 2.046 -0.44
-0.64399999 2.053 -0.44
-0.64499998 2.063 -0.417
-0.64399999 2.0610001 -0.41499999
-0.64399999 2.059 -0.412
-0.64300001 2.0580001 -0.41
-0.64300001 2.0580001 -0.40700001
-0.64399999 2.0599999 -0.40599999
-0.64499998 2.0639999 -0.40400001
-0.64600003 2.0680001 -0.403
-0.648 2.072 -0.40200001
-0.64899999 2.0769999 -0.40000001
-0.66100001 2.1159999 -0.396
-0.66399997 2.1270001 -0.396
-0.66600001 2.1329999 -0.39500001
-0.66600001 2.132 -0.39300001
-0.66500002 2.132 -0.391
-0.66500002 2.131 -0.38800001
-0.66500002 2.1329999 -0.38600001
-0.66600001 2.1370001 -0.38499999
-0.66799998 2.141 -0.38299999
-0.67000002 2.1459999 -0.382
-0.671 2.151 -0.38100001
-0.67299998 2.1570001 -0.37900001
-0.67400002 2.161 -0.37799999
-0.67500001 2.165 -0.37599999
-0.676 2.1700001 -0.375
-0.67799997 2.1760001 -0.373
-0.67900002 2.1800001 -0.37200001
-0.68000001 2.1819999 -0.37
-0.634 2.02 -0.52600002
-0.63300002 2.0179999 -0.523
-0.63200003 2.017 -0.52100003
-0.63200003 2.017 -0.51800001
-0.63200003 2.017 -0.51599997
-0.63200003 2.017 -0.514
-0.63200003 2.016 -0.51200002
-0.63099998 2.0139999 -0.509
-0.63099998 2.013 -0.50700003
-0.63099998 2.0139999 -0.505
-0.63499999 2.033 -0.46700001
-0.63599998 2.036 -0.46599999
-0.63599998 2.0369999 -0.46399999
-0.63599998 2.036 -0.461
-0.63499999 2.0350001 -0.45899999
-0.63499999 2.0350001 -0.45699999
-0.63499999 2.036 -0.45500001
-0.63599998 2.0380001 -0.45300001
-0.63599998 2.0380001 -0.45100001
-0.63599998 2.0380001 -0.449
-0.63599998 2.0380001 -0.447
-0.63499999 2.0369999 -0.44400001
-0.63499999 2.0380001 -0.442
-0.63599998 2.0409999 -0.44100001
-0.63800001 2.0450001 -0.44
-0.639 2.049 -0.43900001
-0.63999999 2.0550001 -0.43799999
-0.64200002 2.0599999 -0.43700001
-0.64399999 2.069 -0.41800001
-0.64200002 2.0650001 -0.41499999
-0.64099997 2.062 -0.41299999
-0.64099997 2.062 -0.41
-0.64099997 2.062 -0.40799999
-0.64099997 2.0639999 -0.40599999
-0.64200002 2.0669999 -0.405
-0.64399999 2.0710001 -0.40400001
-0.64499998 2.076 -0.40200001
-0.64600003 2.0799999 -0.40099999
-0.64700001 2.085 -0.39899999
-0.64899999 2.0899999 -0.398
-0.65899998 2.1210001 -0.398
-0.66100001 2.1289999 -0.396
-0.662 2.1329999 -0.39500001
-0.662 2.131 -0.39199999
-0.662 2.132 -0.38999999
-0.66299999 2.1359999 -0.389
-0.66399997 2.1400001 -0.38699999
-0.66600001 2.145 -0.38600001
-0.667 2.1489999 -0.384
-0.66799998 2.1530001 -0.38299999
