ply
format ascii 1.0
comment PCL generated
element vertex 1800
property float x
property float y
property float z
element face 0
element camera 0
property float view_px
property float view_py
property float view_pz
property float x_axisx
property float x_axisy
property float x_axisz
property float y_axisx
property float y_axisy
property float y_axisz
property float z_axisx
property float z_axisy
property float z_axisz
property float focal
property float scalex
property float scaley
property float centerx
property float centery
property int viewportx
property int viewporty
property float k1
property float k2
end_header
-0.21799999 1.957 -0.43799999
-0.21799999 1.954 -0.435
-0.21799999 1.9529999 -0.433
-0.21799999 1.952 -0.43099999
-0.21799999 1.952 -0.42899999
-0.21799999 1.952 -0.42699999
-0.21799999 1.9529999 -0.42500001
-0.21799999 1.954 -0.42300001
-0.21799999 1.954 -0.421
-0.21699999 1.9529999 -0.41800001
-0.21699999 1.9529999 -0.41600001
-0.21699999 1.9529999 -0.41499999
-0.21699999 1.9529999 -0.41299999
-0.21699999 1.951 -0.41
-0.21699999 1.95 -0.40799999
-0.21699999 1.949 -0.405
-0.21699999 1.948 -0.403
-0.252 2.26 -0.74000001
-0.252 2.2590001 -0.73699999
-0.252 2.256 -0.73400003
-0.252 2.2539999 -0.73100001
-0.252 2.2539999 -0.72899997
-0.252 2.2539999 -0.72600001
-0.252 2.2550001 -0.72399998
-0.252 2.257 -0.722
-0.252 2.2590001 -0.72000003
-0.252 2.26 -0.71799999
-0.252 2.26 -0.71600002
-0.252 2.2620001 -0.71399999
-0.252 2.2639999 -0.71200001
-0.25299999 2.2679999 -0.71100003
-0.221 2.006 -0.50400001
-0.221 2.0020001 -0.50099999
-0.22 1.999 -0.498
-0.22 1.9960001 -0.49399999
-0.219 1.992 -0.49200001
-0.219 1.987 -0.48800001
-0.21799999 1.983 -0.486
-0.21799999 1.9809999 -0.48300001
-0.21799999 1.98 -0.47999999
-0.21799999 1.978 -0.47799999
-0.21799999 1.977 -0.47600001
-0.21799999 1.976 -0.47299999
-0.21699999 1.975 -0.47099999
-0.21699999 1.974 -0.46799999
-0.21699999 1.973 -0.46599999
-0.21699999 1.974 -0.46399999
-0.21799999 1.974 -0.46200001
-0.21799999 1.976 -0.461
-0.21699999 1.975 -0.458
-0.21699999 1.972 -0.45500001
-0.21600001 1.97 -0.45300001
-0.21600001 1.967 -0.44999999
-0.21600001 1.965 -0.44800001
-0.21600001 1.9630001 -0.44499999
-0.215 1.961 -0.44299999
-0.215 1.959 -0.44
-0.215 1.957 -0.43799999
-0.215 1.954 -0.435
-0.215 1.9529999 -0.433
-0.215 1.952 -0.43099999
-0.215 1.952 -0.42899999
-0.215 1.952 -0.42699999
-0.215 1.9529999 -0.42500001
-0.215 1.955 -0.42300001
-0.215 1.955 -0.421
-0.215 1.955 -0.419
-0.214 1.954 -0.417
-0.214 1.955 -0.41499999
-0.214 1.954 -0.41299999
-0.214 1.952 -0.41
-0.214 1.951 -0.40799999
-0.214 1.95 -0.40599999
-0.214 1.949 -0.40400001
-0.248 2.2550001 -0.741
-0.248 2.2579999 -0.74000001
-0.248 2.2579999 -0.73699999
-0.248 2.2550001 -0.73400003
-0.248 2.2539999 -0.73100001
-0.248 2.2550001 -0.72899997
-0.248 2.256 -0.727
-0.248 2.257 -0.72399998
-0.248 2.2579999 -0.722
-0.248 2.2609999 -0.72100002
-0.248 2.2609999 -0.71799999
-0.248 2.2579999 -0.71499997
-0.248 2.2579999 -0.71200001
-0.248 2.26 -0.71100003
-0.249 2.2639999 -0.70999998
-0.21799999 2.0079999 -0.50400001
-0.21799999 2.0039999 -0.50099999
-0.21699999 2 -0.498
-0.21699999 1.997 -0.49399999
-0.21600001 1.993 -0.49200001
-0.21600001 1.989 -0.48800001
-0.215 1.9859999 -0.486
-0.215 1.984 -0.48300001
-0.215 1.982 -0.48100001
-0.215 1.979 -0.47799999
-0.214 1.978 -0.47600001
-0.214 1.977 -0.47299999
-0.214 1.976 -0.47099999
-0.214 1.975 -0.46799999
-0.214 1.973 -0.46599999
-0.214 1.973 -0.46399999
-0.214 1.972 -0.46200001
-0.214 1.971 -0.45899999
-0.213 1.97 -0.45699999
-0.213 1.97 -0.45500001
-0.213 1.9680001 -0.45300001
-0.213 1.967 -0.44999999
-0.212 1.965 -0.44800001
-0.212 1.962 -0.44499999
-0.212 1.96 -0.44299999
-0.212 1.9579999 -0.44
-0.211 1.956 -0.43799999
-0.211 1.954 -0.435
-0.211 1.9529999 -0.433
-0.211 1.952 -0.43099999
-0.211 1.951 -0.42899999
-0.211 1.95 -0.426
-0.211 1.95 -0.42399999
-0.211 1.952 -0.42199999
-0.211 1.952 -0.41999999
-0.211 1.95 -0.41800001
-0.20999999 1.95 -0.41600001
-0.20999999 1.951 -0.414
-0.20999999 1.951 -0.412
-0.20999999 1.95 -0.41
-0.20999999 1.949 -0.40799999
-0.20999999 1.95 -0.40599999
-0.20999999 1.949 -0.40400001
-0.244 2.2509999 -0.74000001
-0.244 2.2550001 -0.73900002
-0.244 2.256 -0.73699999
-0.244 2.2539999 -0.73400003
-0.244 2.2539999 -0.73100001
-0.244 2.2550001 -0.72899997
-0.244 2.256 -0.727
-0.244 2.257 -0.72399998
-0.245 2.2579999 -0.722
-0.245 2.2609999 -0.72100002
-0.245 2.2609999 -0.71799999
-0.245 2.2579999 -0.71499997
-0.244 2.2579999 -0.71200001
-0.244 2.2609999 -0.71100003
-0.215 2.0079999 -0.50400001
-0.214 2.003 -0.50099999
-0.214 1.998 -0.498
-0.213 1.9960001 -0.49399999
-0.213 1.993 -0.49200001
-0.212 1.989 -0.48800001
-0.212 1.987 -0.486
-0.212 1.984 -0.48300001
-0.212 1.982 -0.48100001
-0.211 1.98 -0.47799999
-0.211 1.979 -0.47600001
-0.211 1.978 -0.47299999
-0.211 1.977 -0.47099999
-0.211 1.976 -0.46900001
-0.211 1.975 -0.46700001
-0.20999999 1.973 -0.46399999
-0.20999999 1.972 -0.46200001
-0.20999999 1.969 -0.45899999
-0.20999999 1.9680001 -0.456
-0.20999999 1.9680001 -0.45500001
-0.20999999 1.967 -0.45300001
-0.20900001 1.9630001 -0.44999999
-0.20900001 1.961 -0.447
-0.20900001 1.96 -0.44499999
-0.208 1.9579999 -0.442
-0.208 1.956 -0.44
-0.208 1.954 -0.43700001
-0.208 1.9529999 -0.435
-0.208 1.952 -0.433
-0.208 1.951 -0.43000001
-0.208 1.951 -0.428
-0.208 1.95 -0.426
-0.208 1.951 -0.42399999
-0.208 1.951 -0.42199999
-0.207 1.951 -0.41999999
-0.207 1.95 -0.41800001
-0.207 1.949 -0.41600001
-0.207 1.949 -0.414
-0.207 1.95 -0.412
-0.207 1.95 -0.41
-0.207 1.949 -0.40799999
-0.207 1.949 -0.405
-0.241 2.2520001 -0.73799998
-0.241 2.2550001 -0.736
-0.241 2.2539999 -0.73299998
-0.23999999 2.2539999 -0.73100001
-0.23999999 2.2550001 -0.72899997
-0.241 2.256 -0.727
-0.241 2.257 -0.72399998
-0.241 2.2590001 -0.722
-0.241 2.2609999 -0.72100002
-0.241 2.26 -0.71799999
-0.241 2.257 -0.71399999
-0.241 2.257 -0.71200001
-0.241 2.2609999 -0.71100003
-0.212 2.0090001 -0.50400001
-0.211 2.003 -0.50099999
-0.211 1.999 -0.498
-0.20999999 1.997 -0.495
-0.20999999 1.994 -0.49200001
-0.20900001 1.9910001 -0.48899999
-0.20900001 1.988 -0.486
-0.20900001 1.9859999 -0.484
-0.20900001 1.984 -0.48100001
-0.208 1.982 -0.479
-0.208 1.9809999 -0.47600001
-0.208 1.9809999 -0.47400001
-0.208 1.979 -0.472
-0.208 1.976 -0.46900001
-0.207 1.973 -0.46599999
-0.207 1.972 -0.46399999
-0.207 1.97 -0.461
-0.207 1.967 -0.458
-0.206 1.965 -0.456
-0.206 1.965 -0.454
-0.206 1.9630001 -0.45199999
-0.206 1.96 -0.449
-0.206 1.9579999 -0.44600001
-0.206 1.9579999 -0.44400001
-0.205 1.957 -0.442
-0.205 1.955 -0.43900001
-0.205 1.954 -0.43700001
-0.205 1.9529999 -0.435
-0.205 1.952 -0.43200001
-0.204 1.951 -0.43000001
-0.204 1.95 -0.428
-0.204 1.95 -0.426
-0.204 1.95 -0.42399999
-0.204 1.949 -0.42199999
-0.204 1.948 -0.41999999
-0.204 1.948 -0.41800001
-0.204 1.947 -0.41499999
-0.204 1.947 -0.41299999
-0.204 1.947 -0.41100001
-0.204 1.948 -0.40900001
-0.204 1.948 -0.40700001
-0.237 2.2490001 -0.736
-0.237 2.253 -0.73500001
-0.237 2.253 -0.73299998
-0.237 2.253 -0.73100001
-0.237 2.2550001 -0.72899997
-0.237 2.257 -0.727
-0.237 2.2579999 -0.72399998
-0.23800001 2.2590001 -0.722
-0.23800001 2.26 -0.72000003
-0.237 2.2590001 -0.71700001
-0.237 2.2550001 -0.71399999
-0.237 2.2550001 -0.71100003
-0.237 2.2590001 -0.70999998
-0.20900001 2.0090001 -0.50400001
-0.208 2.0050001 -0.50099999
-0.208 2.0009999 -0.498
-0.207 1.999 -0.495
-0.207 1.9960001 -0.49200001
-0.206 1.992 -0.49000001
-0.206 1.99 -0.48699999
-0.206 1.988 -0.484
-0.206 1.9859999 -0.48199999
-0.205 1.983 -0.479
-0.205 1.982 -0.477
-0.205 1.982 -0.47499999
-0.205 1.979 -0.472
-0.204 1.975 -0.46900001
-0.204 1.972 -0.46599999
-0.204 1.971 -0.463
-0.204 1.9680001 -0.461
-0.20299999 1.965 -0.458
-0.20299999 1.9630001 -0.456
-0.20299999 1.962 -0.45300001
-0.20299999 1.96 -0.45100001
-0.20200001 1.957 -0.44800001
-0.20200001 1.956 -0.44600001
-0.20200001 1.957 -0.44400001
-0.20200001 1.956 -0.44100001
-0.20200001 1.954 -0.43900001
-0.20200001 1.952 -0.43700001
-0.20200001 1.952 -0.43399999
-0.20200001 1.951 -0.43200001
-0.20100001 1.95 -0.43000001
-0.20100001 1.95 -0.428
-0.20100001 1.95 -0.426
-0.20100001 1.949 -0.42399999
-0.20100001 1.946 -0.421
-0.20100001 1.946 -0.417
-0.23199999 2.2449999 -0.73500001
-0.233 2.25 -0.73400003
-0.233 2.2509999 -0.73199999
-0.233 2.253 -0.73000002
-0.233 2.2550001 -0.72899997
-0.234 2.257 -0.727
-0.234 2.2590001 -0.72500002
-0.234 2.2590001 -0.722
-0.234 2.2579999 -0.72000003
-0.233 2.256 -0.71600002
-0.233 2.253 -0.713
-0.206 2.0109999 -0.50599998
-0.205 2.0090001 -0.50400001
-0.205 2.0050001 -0.50099999
-0.204 2.0020001 -0.498
-0.204 1.999 -0.495
-0.204 1.9960001 -0.49200001
-0.204 1.993 -0.48899999
-0.20299999 1.9910001 -0.48699999
-0.20299999 1.989 -0.484
-0.20299999 1.9859999 -0.48199999
-0.20299999 1.984 -0.479
-0.20200001 1.9809999 -0.47600001
-0.20200001 1.979 -0.47299999
-0.20100001 1.977 -0.47099999
-0.20100001 1.975 -0.46799999
-0.20100001 1.972 -0.46599999
-0.20100001 1.97 -0.463
-0.2 1.967 -0.46000001
-0.2 1.964 -0.45699999
-0.2 1.961 -0.45500001
-0.2 1.96 -0.45300001
-0.199 1.9579999 -0.44999999
-0.199 1.955 -0.447
-0.199 1.954 -0.44499999
-0.199 1.954 -0.44299999
-0.199 1.9529999 -0.44100001
-0.199 1.95 -0.43799999
-0.199 1.95 -0.43599999
-0.199 1.951 -0.43399999
-0.198 1.951 -0.43200001
-0.198 1.949 -0.43000001
-0.198 1.949 -0.428
-0.198 1.95 -0.426
-0.198 1.949 -0.42399999
-0.198 1.946 -0.421
-0.198 1.946 -0.417
-0.229 2.247 -0.736
-0.229 2.2520001 -0.73500001
-0.229 2.2539999 -0.73400003
-0.23 2.257 -0.73199999
-0.23 2.2590001 -0.73000002
-0.23 2.26 -0.72799999
-0.23 2.2590001 -0.72500002
-0.23 2.2590001 -0.722
-0.23 2.2579999 -0.72000003
-0.229 2.256 -0.71600002
-0.20200001 2.007 -0.50199997
-0.20100001 2.0020001 -0.498
-0.20100001 1.997 -0.495
-0.2 1.994 -0.49200001
-0.2 1.9910001 -0.48899999
-0.199 1.989 -0.48699999
-0.199 1.987 -0.484
-0.199 1.984 -0.48100001
-0.199 1.98 -0.47799999
-0.198 1.978 -0.47499999
-0.198 1.978 -0.47299999
-0.198 1.976 -0.47099999
-0.198 1.972 -0.46799999
-0.197 1.9680001 -0.465
-0.197 1.965 -0.46200001
-0.19599999 1.962 -0.45899999
-0.19599999 1.96 -0.456
-0.19599999 1.957 -0.454
-0.19599999 1.956 -0.45100001
-0.19499999 1.954 -0.449
-0.19499999 1.954 -0.447
-0.19499999 1.954 -0.44499999
-0.19499999 1.954 -0.44299999
-0.19499999 1.9529999 -0.44100001
-0.19499999 1.952 -0.43799999
-0.19499999 1.951 -0.43599999
-0.19499999 1.952 -0.43399999
-0.19499999 1.951 -0.43200001
-0.19499999 1.949 -0.42899999
-0.19499999 1.949 -0.42699999
-0.19499999 1.951 -0.426
-0.19499999 1.95 -0.42399999
-0.19499999 1.947 -0.421
-0.19400001 1.946 -0.419
-0.22499999 2.2460001 -0.73500001
-0.226 2.2509999 -0.73500001
-0.226 2.2550001 -0.73400003
-0.226 2.257 -0.73199999
-0.226 2.2590001 -0.72899997
-0.226 2.2590001 -0.727
-0.226 2.2590001 -0.72500002
-0.226 2.2579999 -0.722
-0.226 2.2579999 -0.71899998
-0.22499999 2.257 -0.71700001
-0.198 2.0079999 -0.50400001
-0.198 2.0039999 -0.50099999
-0.197 2 -0.498
-0.197 1.995 -0.49399999
-0.197 1.992 -0.491
-0.19599999 1.99 -0.48899999
-0.19599999 1.987 -0.486
-0.19599999 1.983 -0.48300001
-0.19499999 1.98 -0.47999999
-0.19499999 1.978 -0.477
-0.19499999 1.976 -0.47499999
-0.19499999 1.974 -0.472
-0.19400001 1.972 -0.47
-0.19400001 1.969 -0.46700001
-0.19400001 1.965 -0.46399999
-0.193 1.962 -0.461
-0.193 1.959 -0.458
-0.193 1.9579999 -0.456
-0.193 1.957 -0.454
-0.192 1.955 -0.45100001
-0.192 1.955 -0.449
-0.192 1.954 -0.447
-0.192 1.954 -0.44499999
-0.192 1.954 -0.44299999
-0.192 1.9529999 -0.44100001
-0.192 1.952 -0.43799999
-0.192 1.951 -0.43599999
-0.192 1.951 -0.43399999
-0.192 1.951 -0.43200001
-0.192 1.95 -0.43000001
-0.192 1.951 -0.428
-0.192 1.952 -0.426
-0.192 1.951 -0.42399999
-0.191 1.948 -0.421
-0.191 1.947 -0.419
-0.191 1.947 -0.417
-0.222 2.2479999 -0.736
-0.222 2.2520001 -0.73500001
-0.222 2.256 -0.73400003
-0.223 2.2590001 -0.73199999
-0.223 2.2609999 -0.73000002
-0.223 2.2609999 -0.72799999
-0.223 2.26 -0.72500002
-0.222 2.26 -0.722
-0.222 2.26 -0.72000003
-0.19499999 2.0050001 -0.50099999
-0.19400001 2.0009999 -0.498
-0.19400001 1.9960001 -0.49399999
-0.19400001 1.992 -0.491
-0.193 1.989 -0.48800001
-0.193 1.985 -0.486
-0.192 1.9809999 -0.48199999
-0.192 1.978 -0.47999999
-0.192 1.976 -0.477
-0.192 1.974 -0.47400001
-0.191 1.97 -0.472
-0.191 1.9680001 -0.46900001
-0.191 1.966 -0.46599999
-0.19 1.9630001 -0.463
-0.19 1.96 -0.46000001
-0.19 1.9579999 -0.458
-0.19 1.956 -0.456
-0.189 1.955 -0.45300001
-0.189 1.955 -0.45100001
-0.189 1.954 -0.449
-0.189 1.954 -0.447
-0.189 1.954 -0.44499999
-0.189 1.955 -0.44299999
-0.189 1.954 -0.44100001
-0.189 1.952 -0.43799999
-0.189 1.952 -0.43599999
-0.189 1.952 -0.43399999
-0.189 1.952 -0.43200001
-0.189 1.951 -0.43000001
-0.189 1.951 -0.428
-0.189 1.952 -0.426
-0.189 1.951 -0.42399999
-0.18799999 1.949 -0.421
-0.18799999 1.948 -0.419
-0.18799999 1.948 -0.417
-0.21799999 2.25 -0.736
-0.21799999 2.2539999 -0.73500001
-0.21799999 2.257 -0.73400003
-0.219 2.26 -0.73299998
-0.219 2.263 -0.73100001
-0.219 2.263 -0.72799999
-0.219 2.2609999 -0.72500002
-0.21799999 2.2609999 -0.72299999
-0.21799999 2.2609999 -0.72000003
-0.191 2.0009999 -0.498
-0.191 1.995 -0.49399999
-0.19 1.99 -0.491
-0.19 1.987 -0.48800001
-0.189 1.984 -0.48500001
-0.189 1.98 -0.48199999
-0.189 1.976 -0.479
-0.189 1.974 -0.47600001
-0.18799999 1.971 -0.47400001
-0.18799999 1.9680001 -0.47099999
-0.18799999 1.966 -0.46799999
-0.18700001 1.964 -0.465
-0.18700001 1.962 -0.463
-0.18700001 1.96 -0.46000001
-0.18700001 1.9579999 -0.458
-0.186 1.956 -0.45500001
-0.186 1.955 -0.45300001
-0.186 1.954 -0.45100001
-0.186 1.954 -0.449
-0.186 1.9529999 -0.447
-0.186 1.9529999 -0.44499999
-0.186 1.954 -0.44299999
-0.186 1.954 -0.44100001
-0.186 1.952 -0.43799999
-0.186 1.951 -0.43599999
-0.186 1.952 -0.43399999
-0.186 1.952 -0.43200001
-0.186 1.951 -0.43000001
-0.186 1.951 -0.428
-0.186 1.952 -0.426
-0.186 1.951 -0.42399999
-0.185 1.949 -0.421
-0.185 1.948 -0.419
-0.214 2.2460001 -0.73799998
-0.214 2.25 -0.73699999
-0.215 2.253 -0.73500001
-0.215 2.256 -0.73400003
-0.215 2.2590001 -0.73199999
-0.215 2.263 -0.73100001
-0.215 2.2639999 -0.72799999
-0.215 2.2609999 -0.72500002
-0.215 2.26 -0.722
-0.215 2.2609999 -0.72000003
-0.18700001 1.9960001 -0.49599999
-0.18700001 1.988 -0.49200001
-0.186 1.984 -0.48899999
-0.186 1.983 -0.48699999
-0.186 1.98 -0.484
-0.186 1.976 -0.48100001
-0.185 1.973 -0.47799999
-0.185 1.972 -0.47600001
-0.185 1.969 -0.47299999
-0.185 1.966 -0.47
-0.184 1.964 -0.46799999
-0.184 1.9630001 -0.465
-0.184 1.962 -0.463
-0.184 1.96 -0.46000001
-0.184 1.9579999 -0.458
-0.184 1.957 -0.456
-0.183 1.956 -0.454
-0.183 1.955 -0.45100001
-0.183 1.954 -0.449
-0.183 1.9529999 -0.44600001
-0.183 1.952 -0.44400001
-0.183 1.952 -0.442
-0.183 1.951 -0.44
-0.183 1.95 -0.43799999
-0.183 1.949 -0.43599999
-0.183 1.95 -0.43399999
-0.183 1.95 -0.43200001
-0.183 1.951 -0.43000001
-0.183 1.951 -0.428
-0.183 1.951 -0.426
-0.182 1.95 -0.42399999
-0.182 1.948 -0.421
-0.20999999 2.2490001 -0.73799998
-0.20999999 2.2520001 -0.73699999
-0.211 2.2550001 -0.73500001
-0.211 2.257 -0.73400003
-0.212 2.26 -0.73199999
-0.212 2.2650001 -0.73100001
-0.212 2.266 -0.72899997
-0.212 2.263 -0.72600001
-0.211 2.263 -0.72299999
-0.211 2.266 -0.722
-0.184 1.995 -0.5
-0.184 1.994 -0.49700001
-0.183 1.99 -0.49399999
-0.183 1.984 -0.491
-0.182 1.98 -0.48800001
-0.182 1.98 -0.486
-0.182 1.978 -0.484
-0.182 1.975 -0.48100001
-0.18099999 1.972 -0.47799999
-0.18099999 1.97 -0.47499999
-0.18099999 1.967 -0.47299999
-0.18099999 1.964 -0.47
-0.18000001 1.9630001 -0.46700001
-0.18000001 1.962 -0.465
-0.18000001 1.962 -0.463
-0.18000001 1.96 -0.46000001
-0.18000001 1.9579999 -0.458
-0.18000001 1.956 -0.45500001
-0.17900001 1.954 -0.45300001
-0.17900001 1.9529999 -0.45100001
-0.17900001 1.9529999 -0.449
-0.17900001 1.952 -0.44600001
-0.17900001 1.951 -0.44400001
-0.17900001 1.952 -0.442
-0.17900001 1.951 -0.44
-0.17900001 1.949 -0.43700001
-0.17900001 1.949 -0.435
-0.17900001 1.95 -0.43399999
-0.17900001 1.95 -0.43200001
-0.17900001 1.95 -0.42899999
-0.17900001 1.949 -0.42699999
-0.17900001 1.949 -0.42500001
-0.17900001 1.948 -0.42300001
-0.206 2.2449999 -0.73900002
-0.206 2.247 -0.73799998
-0.206 2.25 -0.736
-0.207 2.2520001 -0.73400003
-0.207 2.253 -0.73299998
-0.208 2.256 -0.73100001
-0.208 2.2609999 -0.73000002
-0.208 2.263 -0.72799999
-0.208 2.2620001 -0.72500002
-0.208 2.2639999 -0.72399998
-0.18000001 1.993 -0.50099999
-0.18000001 1.992 -0.49900001
-0.18000001 1.992 -0.49700001
-0.18000001 1.989 -0.49399999
-0.17900001 1.983 -0.491
-0.17900001 1.98 -0.48800001
-0.17900001 1.979 -0.48500001
-0.17900001 1.977 -0.48300001
-0.178 1.974 -0.47999999
-0.178 1.971 -0.47799999
-0.178 1.969 -0.47499999
-0.178 1.967 -0.47299999
-0.178 1.966 -0.47
-0.178 1.965 -0.46799999
-0.177 1.9630001 -0.465
-0.177 1.962 -0.463
-0.177 1.961 -0.46000001
-0.177 1.959 -0.458
-0.177 1.956 -0.45500001
-0.177 1.954 -0.45300001
-0.176 1.9529999 -0.45100001
-0.176 1.952 -0.449
-0.176 1.952 -0.44600001
-0.176 1.951 -0.44400001
-0.176 1.95 -0.442
-0.176 1.949 -0.44
-0.176 1.948 -0.43700001
-0.176 1.948 -0.435
-0.176 1.949 -0.433
-0.176 1.948 -0.43099999
-0.176 1.947 -0.42899999
-0.176 1.947 -0.42699999
-0.176 1.947 -0.42500001
-0.20299999 2.2460001 -0.74000001
-0.20299999 2.247 -0.73799998
-0.20299999 2.2479999 -0.736
-0.20299999 2.2490001 -0.73299998
-0.20299999 2.25 -0.73100001
-0.204 2.2520001 -0.72899997
-0.204 2.256 -0.72799999
-0.204 2.2579999 -0.727
-0.204 2.26 -0.72500002
-0.177 1.992 -0.50300002
-0.177 1.992 -0.50099999
-0.177 1.992 -0.49900001
-0.177 1.9910001 -0.49700001
-0.177 1.988 -0.49399999
-0.176 1.983 -0.491
-0.176 1.98 -0.48800001
-0.176 1.979 -0.486
-0.176 1.977 -0.48300001
-0.176 1.975 -0.48100001
-0.175 1.973 -0.47799999
-0.175 1.971 -0.47600001
-0.175 1.97 -0.47299999
-0.175 1.969 -0.47099999
-0.175 1.967 -0.46799999
-0.175 1.965 -0.46599999
-0.17399999 1.9630001 -0.463
-0.17399999 1.961 -0.46000001
-0.17399999 1.9579999 -0.458
-0.17399999 1.956 -0.45500001
-0.17299999 1.954 -0.45300001
-0.17299999 1.9529999 -0.45100001
-0.17299999 1.952 -0.449
-0.17299999 1.95 -0.44600001
-0.17299999 1.949 -0.44400001
-0.17299999 1.948 -0.442
-0.17299999 1.948 -0.43900001
-0.17299999 1.947 -0.43700001
-0.17200001 1.946 -0.435
-0.17200001 1.946 -0.433
-0.17200001 1.946 -0.43000001
-0.2 2.2460001 -0.73699999
-0.2 2.2460001 -0.73500001
-0.199 2.2460001 -0.73199999
-0.199 2.2460001 -0.73000002
-0.199 2.247 -0.72799999
-0.199 2.25 -0.72600001
-0.17399999 1.989 -0.50300002
-0.17399999 1.99 -0.50099999
-0.17399999 1.99 -0.49900001
-0.17399999 1.989 -0.49700001
-0.17399999 1.9859999 -0.49399999
-0.17299999 1.982 -0.49000001
-0.17299999 1.98 -0.48800001
-0.17299999 1.978 -0.486
-0.17299999 1.977 -0.484
-0.17299999 1.976 -0.48100001
-0.17299999 1.975 -0.479
-0.17200001 1.974 -0.47600001
-0.17200001 1.972 -0.47400001
-0.17200001 1.97 -0.47099999
-0.17200001 1.9680001 -0.46799999
-0.17200001 1.965 -0.46599999
-0.171 1.9630001 -0.463
-0.171 1.96 -0.46000001
-0.171 1.9579999 -0.458
-0.17 1.954 -0.45500001
-0.17 1.952 -0.45300001
-0.17 1.952 -0.44999999
-0.17 1.95 -0.44800001
-0.17 1.948 -0.44499999
-0.17 1.947 -0.44299999
-0.17 1.947 -0.44100001
-0.17 1.946 -0.43900001
-0.169 1.9450001 -0.43700001
-0.169 1.9450001 -0.435
-0.19599999 2.244 -0.73699999
-0.19599999 2.243 -0.73400003
-0.19499999 2.2420001 -0.73100001
-0.19499999 2.2409999 -0.72799999
-0.19400001 2.2409999 -0.72600001
-0.19400001 2.243 -0.72399998
-0.17 1.983 -0.50099999
-0.17 1.984 -0.49900001
-0.171 1.984 -0.49700001
-0.171 1.984 -0.495
-0.17 1.983 -0.493
-0.17 1.98 -0.49000001
-0.17 1.978 -0.48699999
-0.17 1.976 -0.48500001
-0.17 1.976 -0.48300001
-0.17 1.976 -0.48100001
-0.169 1.975 -0.479
-0.169 1.974 -0.47600001
-0.169 1.972 -0.47400001
-0.169 1.97 -0.47099999
-0.168 1.967 -0.46799999
-0.168 1.964 -0.465
-0.168 1.962 -0.463
-0.168 1.96 -0.46000001
-0.167 1.957 -0.45699999
-0.167 1.952 -0.454
-0.167 1.949 -0.45199999
-0.167 1.948 -0.449
-0.167 1.948 -0.447
-0.167 1.946 -0.44499999
-0.167 1.946 -0.44299999
-0.167 1.947 -0.44100001
-0.16599999 1.946 -0.43900001
-0.16599999 1.9450001 -0.43599999
-0.192 2.244 -0.73699999
-0.192 2.2409999 -0.73400003
-0.191 2.24 -0.73100001
-0.191 2.2390001 -0.72799999
-0.19 2.2390001 -0.72500002
-0.19 2.2390001 -0.722
-0.167 1.989 -0.50300002
-0.167 1.988 -0.5
-0.167 1.987 -0.498
-0.167 1.9859999 -0.495
-0.167 1.984 -0.493
-0.167 1.982 -0.49000001
-0.16599999 1.9809999 -0.48800001
-0.16599999 1.98 -0.486
-0.16599999 1.979 -0.484
-0.16599999 1.978 -0.48100001
-0.16599999 1.976 -0.479
-0.16599999 1.975 -0.47600001
-0.16500001 1.973 -0.47400001
-0.16500001 1.972 -0.47099999
-0.16500001 1.969 -0.46900001
-0.16500001 1.967 -0.46599999
-0.16500001 1.9630001 -0.463
-0.16500001 1.959 -0.46000001
-0.164 1.955 -0.45699999
-0.164 1.9529999 -0.454
-0.163 1.951 -0.45199999
-0.163 1.95 -0.44999999
-0.163 1.95 -0.44800001
-0.163 1.95 -0.44600001
-0.163 1.949 -0.44400001
-0.163 1.949 -0.44100001
-0.163 1.948 -0.43900001
-0.163 1.947 -0.43700001
-0.163 1.946 -0.435
-0.18799999 2.24 -0.73500001
-0.18799999 2.2379999 -0.73199999
-0.18700001 2.237 -0.72899997
-0.18700001 2.2360001 -0.727
-0.186 2.2349999 -0.72399998
-0.186 2.2349999 -0.72100002
-0.164 1.993 -0.50099999
-0.164 1.99 -0.498
-0.164 1.988 -0.49599999
-0.164 1.985 -0.493
-0.163 1.983 -0.49000001
-0.163 1.9809999 -0.48800001
-0.163 1.98 -0.48500001
-0.163 1.979 -0.48300001
-0.163 1.977 -0.48100001
-0.163 1.975 -0.479
-0.162 1.974 -0.47600001
-0.162 1.972 -0.47299999
-0.162 1.97 -0.47099999
-0.162 1.9680001 -0.46900001
-0.162 1.965 -0.46599999
-0.161 1.961 -0.463
-0.161 1.957 -0.46000001
-0.161 1.9529999 -0.45699999
-0.16 1.95 -0.454
-0.16 1.948 -0.45100001
-0.16 1.948 -0.449
-0.16 1.948 -0.447
-0.16 1.948 -0.44499999
-0.16 1.948 -0.44299999
-0.16 1.948 -0.44100001
-0.16 1.948 -0.43900001
-0.16 1.948 -0.43700001
-0.16 1.948 -0.435
-0.16 1.946 -0.433
-0.184 2.2379999 -0.73400003
-0.184 2.2360001 -0.73199999
-0.183 2.2349999 -0.72899997
-0.183 2.234 -0.72600001
-0.183 2.2320001 -0.72299999
-0.183 2.2309999 -0.72000003
-0.183 2.2320001 -0.71799999
-0.161 1.994 -0.50199997
-0.161 1.9910001 -0.49900001
-0.161 1.988 -0.49599999
-0.161 1.9859999 -0.49399999
-0.16 1.983 -0.49000001
-0.16 1.982 -0.48800001
-0.16 1.98 -0.486
-0.16 1.979 -0.48300001
-0.16 1.977 -0.48100001
-0.16 1.975 -0.479
-0.15899999 1.974 -0.47600001
-0.15899999 1.972 -0.47299999
-0.15899999 1.969 -0.47099999
-0.15899999 1.966 -0.46799999
-0.15800001 1.964 -0.465
-0.15800001 1.96 -0.46200001
-0.15800001 1.957 -0.46000001
-0.15800001 1.954 -0.45699999
-0.15800001 1.952 -0.454
-0.15700001 1.95 -0.45199999
-0.15700001 1.949 -0.449
-0.15700001 1.948 -0.447
-0.15700001 1.948 -0.44499999
-0.15700001 1.948 -0.44299999
-0.15700001 1.949 -0.44100001
-0.15700001 1.95 -0.44
-0.15700001 1.95 -0.43799999
-0.15700001 1.95 -0.435
-0.15700001 1.948 -0.433
-0.15700001 1.947 -0.43099999
-0.18000001 2.237 -0.73400003
-0.18000001 2.2349999 -0.73100001
-0.18000001 2.234 -0.72799999
-0.18000001 2.2320001 -0.72500002
-0.17900001 2.2309999 -0.722
-0.17900001 2.2290001 -0.71899998
-0.17900001 2.2290001 -0.71700001
-0.15800001 1.993 -0.50199997
-0.15800001 1.99 -0.49900001
-0.15800001 1.988 -0.49599999
-0.15800001 1.9859999 -0.493
-0.15700001 1.983 -0.49000001
-0.15700001 1.982 -0.48800001
-0.15700001 1.9809999 -0.486
-0.15700001 1.979 -0.48300001
-0.15700001 1.976 -0.48100001
-0.156 1.974 -0.47799999
-0.156 1.974 -0.47600001
-0.156 1.972 -0.47299999
-0.156 1.9680001 -0.47
-0.156 1.965 -0.46799999
-0.155 1.9630001 -0.465
-0.155 1.96 -0.46200001
-0.155 1.957 -0.45899999
-0.155 1.955 -0.45699999
-0.155 1.954 -0.45500001
-0.154 1.952 -0.45199999
-0.154 1.949 -0.449
-0.154 1.948 -0.447
-0.154 1.948 -0.44499999
-0.154 1.948 -0.44299999
-0.154 1.95 -0.442
-0.154 1.95 -0.44
-0.154 1.95 -0.43799999
-0.154 1.95 -0.43599999
-0.154 1.95 -0.433
-0.154 1.95 -0.43099999
-0.154 1.948 -0.42899999
-0.176 2.2349999 -0.73299998
-0.176 2.233 -0.73000002
-0.176 2.2320001 -0.727
-0.176 2.2309999 -0.72399998
-0.176 2.2290001 -0.722
-0.176 2.2279999 -0.71899998
-0.176 2.2279999 -0.71700001
-0.155 1.994 -0.50199997
-0.155 1.99 -0.498
-0.155 1.987 -0.49599999
-0.154 1.985 -0.493
-0.154 1.983 -0.49000001
-0.154 1.9809999 -0.48800001
-0.154 1.979 -0.48500001
-0.153 1.976 -0.48199999
-0.153 1.973 -0.47999999
-0.153 1.972 -0.477
-0.153 1.971 -0.47499999
-0.153 1.969 -0.47299999
-0.153 1.967 -0.47
-0.152 1.964 -0.46700001
-0.152 1.962 -0.465
-0.152 1.959 -0.46200001
-0.152 1.957 -0.45899999
-0.15099999 1.955 -0.45699999
-0.15099999 1.952 -0.454
-0.15099999 1.949 -0.45199999
-0.15099999 1.948 -0.449
-0.15099999 1.947 -0.447
-0.15099999 1.947 -0.44499999
-0.15099999 1.947 -0.44299999
-0.15099999 1.949 -0.44100001
-0.15099999 1.95 -0.43900001
-0.15099999 1.948 -0.43700001
-0.15099999 1.948 -0.435
-0.15099999 1.951 -0.43399999
-0.15099999 1.951 -0.43200001
-0.15099999 1.949 -0.42899999
-0.17200001 2.2320001 -0.73199999
-0.17200001 2.23 -0.72899997
-0.17200001 2.2290001 -0.727
-0.17200001 2.2290001 -0.72399998
-0.17200001 2.2290001 -0.722
-0.17200001 2.2279999 -0.71899998
-0.152 1.9960001 -0.50199997
-0.15099999 1.9910001 -0.498
-0.15099999 1.988 -0.49599999
-0.15099999 1.985 -0.493
-0.15099999 1.982 -0.49000001
-0.15000001 1.98 -0.48800001
-0.15000001 1.978 -0.48500001
-0.15000001 1.976 -0.48199999
-0.15000001 1.973 -0.47999999
-0.149 1.97 -0.477
-0.149 1.969 -0.47400001
-0.149 1.967 -0.472
-0.149 1.965 -0.46900001
-0.149 1.964 -0.46700001
-0.149 1.9630001 -0.465
-0.148 1.962 -0.463
-0.148 1.96 -0.46000001
-0.148 1.957 -0.45699999
-0.148 1.954 -0.454
-0.148 1.9529999 -0.45199999
-0.148 1.9529999 -0.44999999
-0.148 1.9529999 -0.44800001
-0.148 1.951 -0.44600001
-0.147 1.951 -0.44400001
-0.147 1.952 -0.442
-0.147 1.952 -0.44
-0.147 1.95 -0.43700001
-0.147 1.95 -0.435
-0.147 1.952 -0.43399999
-0.147 1.952 -0.43200001
-0.147 1.951 -0.42899999
-0.147 1.949 -0.42699999
-0.168 2.23 -0.73199999
-0.168 2.23 -0.72899997
-0.168 2.2290001 -0.727
-0.168 2.2290001 -0.72399998
-0.168 2.2290001 -0.72100002
-0.168 2.2290001 -0.71899998
-0.148 1.994 -0.50199997
-0.148 1.99 -0.498
-0.148 1.987 -0.49599999
-0.147 1.984 -0.493
-0.147 1.982 -0.49000001
-0.147 1.979 -0.48800001
-0.147 1.977 -0.48500001
-0.147 1.975 -0.48199999
-0.146 1.973 -0.479
-0.146 1.97 -0.477
-0.146 1.9680001 -0.47400001
-0.146 1.966 -0.472
-0.146 1.964 -0.46900001
-0.146 1.9630001 -0.46700001
-0.145 1.961 -0.46399999
-0.145 1.96 -0.46200001
-0.145 1.9579999 -0.46000001
-0.145 1.956 -0.45699999
-0.145 1.9529999 -0.454
-0.145 1.952 -0.45199999
-0.145 1.951 -0.44999999
-0.14399999 1.95 -0.44800001
-0.14399999 1.949 -0.44499999
-0.14399999 1.949 -0.44299999
-0.14399999 1.95 -0.44100001
-0.14399999 1.951 -0.43900001
-0.14399999 1.95 -0.43700001
-0.14399999 1.95 -0.435
-0.14399999 1.951 -0.433
-0.14399999 1.95 -0.43099999
-0.14399999 1.949 -0.42899999
-0.16500001 2.23 -0.73400003
-0.164 2.2290001 -0.73100001
-0.164 2.23 -0.72899997
-0.164 2.23 -0.727
-0.164 2.23 -0.72399998
-0.145 1.994 -0.50199997
-0.145 1.9910001 -0.49900001
-0.145 1.989 -0.49599999
-0.14399999 1.9859999 -0.493
-0.14399999 1.983 -0.491
-0.14399999 1.98 -0.48800001
-0.14399999 1.978 -0.48500001
-0.14399999 1.975 -0.48199999
-0.14300001 1.973 -0.47999999
-0.14300001 1.971 -0.477
-0.14300001 1.9680001 -0.47400001
-0.14300001 1.966 -0.472
-0.14300001 1.964 -0.46900001
-0.14300001 1.962 -0.46700001
-0.142 1.959 -0.46399999
-0.142 1.9579999 -0.46200001
-0.142 1.9579999 -0.46000001
-0.142 1.957 -0.45699999
-0.142 1.955 -0.45500001
-0.142 1.9529999 -0.45199999
-0.142 1.952 -0.44999999
-0.141 1.95 -0.44800001
-0.141 1.949 -0.44499999
-0.141 1.949 -0.44299999
-0.141 1.95 -0.44100001
-0.141 1.95 -0.43900001
-0.141 1.95 -0.43700001
-0.141 1.95 -0.435
-0.141 1.95 -0.433
-0.141 1.949 -0.43099999
-0.141 1.949 -0.42899999
-0.161 2.2290001 -0.73299998
-0.16 2.2279999 -0.73100001
-0.16 2.2290001 -0.72899997
-0.161 2.23 -0.727
-0.161 2.23 -0.72399998
-0.142 1.994 -0.50099999
-0.142 1.992 -0.49900001
-0.142 1.9910001 -0.49599999
-0.142 1.988 -0.49399999
-0.141 1.985 -0.491
-0.141 1.9809999 -0.48800001
-0.141 1.978 -0.48500001
-0.14 1.975 -0.48199999
-0.14 1.973 -0.47999999
-0.14 1.971 -0.477
-0.14 1.967 -0.47400001
-0.14 1.965 -0.47099999
-0.14 1.9630001 -0.46900001
-0.139 1.961 -0.46599999
-0.139 1.9579999 -0.463
-0.139 1.957 -0.461
-0.139 1.9579999 -0.46000001
-0.139 1.9579999 -0.45699999
-0.139 1.956 -0.45500001
-0.139 1.954 -0.45300001
-0.139 1.9529999 -0.44999999
-0.139 1.951 -0.44800001
-0.138 1.95 -0.44499999
-0.138 1.949 -0.44299999
-0.138 1.949 -0.44100001
-0.138 1.949 -0.43900001
-0.138 1.949 -0.43700001
-0.138 1.949 -0.435
-0.138 1.948 -0.433
-0.15700001 2.227 -0.73299998
-0.15700001 2.2260001 -0.73000002
-0.15700001 2.227 -0.72799999
-0.15700001 2.2279999 -0.72600001
-0.15700001 2.2290001 -0.72399998
-0.139 1.995 -0.50400001
-0.139 1.993 -0.50099999
-0.139 1.992 -0.49900001
-0.139 1.99 -0.49599999
-0.138 1.987 -0.493
-0.138 1.983 -0.49000001
-0.13699999 1.979 -0.48800001
-0.13699999 1.976 -0.48500001
-0.13699999 1.974 -0.48199999
-0.13699999 1.972 -0.479
-0.13699999 1.969 -0.477
-0.13699999 1.965 -0.47400001
-0.13600001 1.962 -0.47099999
-0.13600001 1.961 -0.46799999
-0.13600001 1.959 -0.46599999
-0.13600001 1.957 -0.463
-0.13600001 1.957 -0.461
-0.13600001 1.9579999 -0.45899999
-0.13600001 1.957 -0.45699999
-0.13600001 1.954 -0.454
-0.13600001 1.9529999 -0.45199999
-0.13600001 1.952 -0.44999999
-0.13500001 1.951 -0.44800001
-0.13500001 1.95 -0.44499999
-0.13500001 1.948 -0.44299999
-0.13500001 1.947 -0.44
-0.153 2.2249999 -0.73199999
-0.153 2.2260001 -0.73000002
-0.153 2.227 -0.72799999
-0.153 2.2279999 -0.72600001
-0.153 2.2290001 -0.72399998
-0.13500001 1.9910001 -0.50300002
-0.13500001 1.99 -0.5
-0.13500001 1.988 -0.498
-0.13500001 1.9859999 -0.495
-0.134 1.983 -0.493
-0.134 1.9809999 -0.49000001
-0.134 1.979 -0.48800001
-0.134 1.978 -0.48500001
-0.134 1.976 -0.48300001
-0.134 1.976 -0.47999999
-0.134 1.973 -0.477
-0.134 1.9680001 -0.47400001
-0.133 1.965 -0.472
-0.133 1.964 -0.46900001
-0.133 1.9630001 -0.46700001
-0.133 1.961 -0.46399999
-0.132 1.959 -0.46200001
-0.132 1.959 -0.46000001
-0.132 1.9579999 -0.45699999
-0.132 1.955 -0.454
-0.132 1.9529999 -0.45199999
-0.132 1.952 -0.44999999
-0.132 1.951 -0.44800001
-0.132 1.95 -0.44499999
-0.131 1.948 -0.44299999
-0.15000001 2.224 -0.73199999
-0.15000001 2.224 -0.72899997
-0.15000001 2.2260001 -0.72799999
-0.15000001 2.2279999 -0.72600001
-0.15000001 2.2290001 -0.72399998
-0.132 1.9960001 -0.50599998
-0.132 1.994 -0.50400001
-0.132 1.993 -0.50099999
-0.132 1.992 -0.49900001
-0.132 1.989 -0.49599999
-0.132 1.9859999 -0.493
-0.131 1.984 -0.491
-0.131 1.982 -0.48800001
-0.131 1.98 -0.48500001
-0.131 1.978 -0.48300001
-0.131 1.976 -0.47999999
-0.13 1.973 -0.47799999
-0.13 1.969 -0.47400001
-0.13 1.967 -0.472
-0.13 1.966 -0.47
-0.13 1.964 -0.46700001
-0.12899999 1.96 -0.46399999
-0.12899999 1.9579999 -0.461
-0.12899999 1.957 -0.45899999
-0.12899999 1.955 -0.45699999
-0.12899999 1.954 -0.454
-0.12899999 1.9529999 -0.45199999
-0.12899999 1.952 -0.44999999
-0.12899999 1.95 -0.44800001
-0.12800001 1.946 -0.44499999
-0.146 2.2219999 -0.72799999
-0.146 2.223 -0.72600001
-0.146 2.2249999 -0.72500002
-0.146 2.227 -0.72299999
-0.12899999 1.997 -0.50599998
-0.12899999 1.995 -0.50400001
-0.12899999 1.995 -0.50199997
-0.12899999 1.994 -0.5
-0.12899999 1.9910001 -0.49599999
-0.12899999 1.989 -0.49399999
-0.12800001 1.988 -0.49200001
-0.12800001 1.9859999 -0.48899999
-0.12800001 1.982 -0.486
-0.12800001 1.98 -0.48300001
-0.12800001 1.978 -0.48100001
-0.127 1.975 -0.47799999
-0.127 1.971 -0.47499999
-0.127 1.9680001 -0.472
-0.127 1.967 -0.47
-0.127 1.964 -0.46700001
-0.126 1.96 -0.46399999
-0.126 1.9579999 -0.461
-0.126 1.956 -0.45899999
-0.126 1.955 -0.45699999
-0.126 1.9529999 -0.454
-0.126 1.952 -0.45199999
-0.126 1.951 -0.44999999
-0.126 1.949 -0.447
-0.126 1.9960001 -0.50599998
-0.126 1.994 -0.50400001
-0.126 1.995 -0.50199997
-0.126 1.994 -0.49900001
-0.126 1.9910001 -0.49599999
-0.125 1.989 -0.49399999
-0.125 1.988 -0.49200001
-0.125 1.9859999 -0.48899999
-0.125 1.982 -0.486
-0.125 1.98 -0.48300001
-0.125 1.979 -0.48100001
-0.125 1.976 -0.47799999
-0.124 1.972 -0.47499999
-0.124 1.9680001 -0.472
-0.124 1.966 -0.46900001
-0.124 1.9630001 -0.46700001
-0.123 1.96 -0.46399999
-0.123 1.9579999 -0.46200001
-0.123 1.957 -0.45899999
-0.123 1.956 -0.45699999
-0.123 1.9529999 -0.454
-0.123 1.951 -0.45199999
-0.123 1.949 -0.449
-0.122 1.948 -0.447
-0.123 1.994 -0.50599998
-0.123 1.992 -0.50300002
-0.123 1.993 -0.50099999
-0.122 1.9910001 -0.49900001
-0.122 1.987 -0.49599999
-0.122 1.985 -0.493
-0.122 1.985 -0.491
-0.122 1.983 -0.48800001
-0.122 1.979 -0.48500001
-0.122 1.977 -0.48199999
-0.122 1.976 -0.47999999
-0.121 1.974 -0.47799999
-0.121 1.97 -0.47400001
-0.121 1.966 -0.472
-0.121 1.9630001 -0.46900001
-0.12 1.961 -0.46599999
-0.12 1.96 -0.46399999
-0.12 1.959 -0.46200001
-0.12 1.959 -0.46000001
-0.12 1.957 -0.45699999
-0.12 1.954 -0.454
-0.119 1.951 -0.45199999
-0.119 1.948 -0.449
-0.12 2.0009999 -0.50700003
-0.119 1.997 -0.50400001
-0.119 1.997 -0.50199997
-0.119 1.994 -0.49900001
-0.119 1.989 -0.49599999
-0.118 1.987 -0.493
-0.118 1.987 -0.491
-0.118 1.984 -0.48800001
-0.118 1.979 -0.48500001
-0.118 1.977 -0.48199999
-0.118 1.976 -0.47999999
-0.117 1.973 -0.47799999
-0.117 1.9680001 -0.47400001
-0.117 1.966 -0.472
-0.117 1.967 -0.47
-0.117 1.965 -0.46700001
-0.117 1.96 -0.46399999
-0.116 1.957 -0.461
-0.116 1.956 -0.45899999
-0.116 1.955 -0.45699999
-0.116 1.954 -0.454
-0.116 1.9529999 -0.45199999
-0.116 1.952 -0.44999999
-0.116 1.95 -0.447
-0.116 1.947 -0.44400001
-0.116 1.997 -0.50400001
-0.116 1.9960001 -0.50099999
-0.116 1.994 -0.49900001
-0.115 1.99 -0.49599999
-0.115 1.987 -0.493
-0.115 1.987 -0.491
-0.115 1.984 -0.48800001
-0.115 1.978 -0.48500001
-0.115 1.975 -0.48199999
-0.114 1.973 -0.479
-0.114 1.969 -0.477
-0.114 1.965 -0.47400001
-0.114 1.9630001 -0.47099999
-0.114 1.964 -0.46900001
-0.114 1.962 -0.46599999
-0.113 1.9579999 -0.463
-0.113 1.955 -0.461
-0.113 1.954 -0.458
-0.113 1.9529999 -0.456
-0.113 1.9529999 -0.454
-0.113 1.9529999 -0.45199999
-0.113 1.952 -0.449
-0.113 1.951 -0.447
-0.113 1.95 -0.44499999
-0.113 1.948 -0.44299999
-0.113 1.995 -0.505
-0.112 1.9910001 -0.50199997
-0.112 1.9910001 -0.5
-0.112 1.989 -0.498
-0.112 1.9859999 -0.49399999
-0.112 1.984 -0.49200001
-0.112 1.983 -0.49000001
-0.112 1.98 -0.48699999
-0.112 1.976 -0.484
-0.111 1.972 -0.48100001
-0.111 1.972 -0.479
-0.111 1.969 -0.47600001
-0.111 1.965 -0.47400001
-0.111 1.962 -0.47099999
-0.111 1.96 -0.46799999
-0.11 1.9579999 -0.465
-0.11 1.956 -0.463
-0.11 1.954 -0.46000001
-0.11 1.954 -0.458
-0.11 1.954 -0.456
-0.11 1.954 -0.454
-0.11 1.9529999 -0.45199999
-0.11 1.951 -0.449
-0.11 1.95 -0.447
-0.11 1.951 -0.44499999
-0.11 1.95 -0.44299999
-0.109 1.989 -0.50400001
-0.109 1.9859999 -0.50099999
-0.109 1.985 -0.49900001
-0.109 1.984 -0.49599999
-0.109 1.9809999 -0.49399999
-0.109 1.979 -0.491
-0.109 1.979 -0.48899999
-0.109 1.977 -0.486
-0.108 1.973 -0.48300001
-0.108 1.971 -0.48100001
-0.108 1.971 -0.479
-0.108 1.969 -0.47600001
-0.108 1.965 -0.47299999
-0.108 1.961 -0.47
-0.107 1.9579999 -0.46799999
-0.107 1.956 -0.465
-0.107 1.955 -0.46200001
-0.107 1.954 -0.46000001
-0.107 1.954 -0.458
-0.107 1.954 -0.456
-0.107 1.955 -0.45500001
-0.107 1.954 -0.45199999
-0.107 1.95 -0.449
-0.107 1.949 -0.447
-0.107 1.95 -0.44499999
-0.107 1.949 -0.44299999
-0.106 1.99 -0.505
-0.106 1.9859999 -0.50199997
-0.106 1.985 -0.49900001
-0.106 1.983 -0.49700001
-0.106 1.98 -0.49399999
-0.106 1.978 -0.491
-0.106 1.977 -0.48800001
-0.105 1.975 -0.486
-0.105 1.973 -0.48300001
-0.105 1.971 -0.48100001
-0.105 1.97 -0.47799999
-0.105 1.9680001 -0.47600001
-0.105 1.965 -0.47299999
-0.104 1.962 -0.47
-0.104 1.959 -0.46799999
-0.104 1.956 -0.465
-0.104 1.956 -0.463
-0.104 1.954 -0.461
-0.104 1.952 -0.458
-0.104 1.952 -0.456
-0.104 1.954 -0.454
-0.104 1.9529999 -0.45199999
-0.104 1.95 -0.449
-0.104 1.949 -0.447
-0.104 1.949 -0.44499999
-0.104 1.948 -0.44299999
-0.103 1.992 -0.505
-0.102 1.988 -0.50199997
-0.102 1.985 -0.49900001
-0.102 1.983 -0.49700001
-0.102 1.982 -0.49399999
-0.102 1.9809999 -0.49200001
-0.102 1.979 -0.48899999
-0.102 1.977 -0.48699999
-0.102 1.975 -0.484
-0.101 1.973 -0.48100001
-0.101 1.971 -0.47799999
-0.101 1.969 -0.47600001
-0.101 1.967 -0.47299999
-0.101 1.964 -0.47
-0.101 1.959 -0.46799999
-0.1 1.956 -0.465
-0.1 1.956 -0.463
-0.1 1.9529999 -0.461
-0.1 1.95 -0.458
-0.1 1.949 -0.45500001
-0.1 1.951 -0.454
-0.1 1.951 -0.45199999
-0.1 1.95 -0.449
-0.1 1.948 -0.447
-0.098999999 1.99 -0.50599998
-0.098999999 1.9859999 -0.50300002
-0.098999999 1.984 -0.5
-0.098999999 1.982 -0.498
-0.098999999 1.9809999 -0.49599999
-0.098999999 1.9809999 -0.493
-0.098999999 1.98 -0.491
-0.098999999 1.978 -0.48899999
-0.098999999 1.977 -0.486
-0.098999999 1.975 -0.484
-0.098999999 1.974 -0.48199999
-0.097999997 1.971 -0.47799999
-0.097999997 1.969 -0.47600001
-0.097999997 1.967 -0.47299999
-0.097999997 1.964 -0.47
-0.097999997 1.96 -0.46799999
-0.097999997 1.957 -0.465
-0.097000003 1.955 -0.46200001
-0.097000003 1.9529999 -0.46000001
-0.097000003 1.951 -0.45699999
-0.097000003 1.95 -0.45500001
-0.097000003 1.951 -0.454
-0.097000003 1.951 -0.45199999
-0.097000003 1.949 -0.449
-0.097000003 1.948 -0.447
-0.096000001 1.99 -0.50599998
-0.096000001 1.988 -0.50300002
-0.096000001 1.9859999 -0.50099999
-0.096000001 1.984 -0.498
-0.096000001 1.982 -0.49599999
-0.096000001 1.982 -0.49399999
-0.096000001 1.9809999 -0.491
-0.096000001 1.979 -0.48899999
-0.096000001 1.977 -0.486
-0.096000001 1.975 -0.484
-0.094999999 1.973 -0.48100001
-0.094999999 1.97 -0.47799999
-0.094999999 1.9680001 -0.47600001
-0.094999999 1.966 -0.47299999
-0.094999999 1.9630001 -0.47
-0.094999999 1.959 -0.46799999
-0.094999999 1.957 -0.465
-0.093999997 1.955 -0.46200001
-0.093999997 1.9529999 -0.46000001
-0.093999997 1.951 -0.45699999
-0.093999997 1.95 -0.45500001
-0.093999997 1.951 -0.45300001
-0.093999997 1.95 -0.45100001
-0.093999997 1.948 -0.449
-0.093999997 1.995 -0.50700003
-0.093000002 1.994 -0.505
-0.093000002 1.992 -0.50199997
-0.093000002 1.989 -0.5
-0.093000002 1.987 -0.49700001
-0.093000002 1.985 -0.495
-0.093000002 1.983 -0.49200001
-0.093000002 1.98 -0.48899999
-0.093000002 1.977 -0.486
-0.092 1.975 -0.484
-0.092 1.971 -0.48100001
-0.092 1.9680001 -0.47799999
-0.092 1.965 -0.47499999
-0.092 1.964 -0.47299999
-0.092 1.961 -0.47
-0.092 1.9579999 -0.46700001
-0.092 1.956 -0.465
-0.090999998 1.954 -0.46200001
-0.090999998 1.952 -0.46000001
-0.090999998 1.951 -0.45699999
-0.090999998 1.95 -0.45500001
-0.090999998 1.95 -0.45300001
-0.090999998 1.949 -0.45100001
-0.090000004 1.994 -0.50099999
-0.090000004 1.99 -0.498
-0.090000004 1.987 -0.495
-0.090000004 1.984 -0.49200001
-0.090000004 1.9809999 -0.48899999
-0.089000002 1.978 -0.486
-0.089000002 1.975 -0.48300001
-0.089000002 1.971 -0.47999999
-0.089000002 1.966 -0.477
-0.089000002 1.962 -0.47499999
-0.089000002 1.961 -0.472
-0.089000002 1.959 -0.47
-0.089000002 1.956 -0.46700001
-0.088 1.954 -0.46399999
-0.088 1.952 -0.46200001
-0.088 1.951 -0.45899999
-0.088 1.949 -0.45699999
-0.088 1.949 -0.45500001
-0.088 1.949 -0.45300001
-0.088 1.948 -0.45100001
-0.086999997 1.9960001 -0.50400001
-0.086999997 1.992 -0.50099999
-0.086000003 1.989 -0.498
-0.086000003 1.9859999 -0.495
-0.086000003 1.983 -0.49200001
-0.086000003 1.979 -0.48899999
-0.086000003 1.976 -0.486
-0.086000003 1.972 -0.48300001
-0.085000001 1.9680001 -0.47999999
-0.085000001 1.964 -0.477
-0.085000001 1.96 -0.47400001
-0.085000001 1.959 -0.47099999
-0.085000001 1.957 -0.46900001
-0.085000001 1.955 -0.46599999
-0.085000001 1.954 -0.46399999
-0.085000001 1.9529999 -0.46200001
-0.083999999 1.951 -0.45899999
-0.083999999 1.948 -0.45699999
-0.083999999 1.947 -0.454
-0.083999999 1.948 -0.45300001
-0.083999999 1.947 -0.45100001
-0.083999999 1.994 -0.50700003
-0.083999999 1.993 -0.505
-0.082999997 1.9910001 -0.50199997
-0.082999997 1.988 -0.5
-0.082999997 1.985 -0.49700001
-0.082999997 1.9809999 -0.493
-0.082999997 1.978 -0.49000001
-0.082999997 1.975 -0.48800001
-0.082000002 1.972 -0.48500001
-0.082000002 1.969 -0.48199999
-0.082000002 1.966 -0.47999999
-0.082000002 1.962 -0.47600001
-0.082000002 1.96 -0.47400001
-0.082000002 1.9579999 -0.47099999
-0.082000002 1.956 -0.46900001
-0.082000002 1.954 -0.46599999
-0.082000002 1.9529999 -0.46399999
-0.081 1.9529999 -0.46200001
-0.081 1.951 -0.46000001
-0.081 1.949 -0.45699999
-0.081 1.948 -0.45500001
-0.081 1.949 -0.45300001
-0.081 1.948 -0.44999999
-0.079999998 1.9910001 -0.50700003
-0.079999998 1.99 -0.50400001
-0.079999998 1.988 -0.50199997
-0.079999998 1.9859999 -0.49900001
-0.079999998 1.983 -0.49599999
-0.079999998 1.979 -0.493
-0.079999998 1.976 -0.49000001
-0.079000004 1.973 -0.48699999
-0.079000004 1.97 -0.48500001
-0.079000004 1.9680001 -0.48199999
-0.079000004 1.965 -0.479
-0.079000004 1.962 -0.47600001
-0.079000004 1.96 -0.47400001
-0.079000004 1.9579999 -0.47099999
-0.079000004 1.956 -0.46900001
-0.079000004 1.954 -0.46599999
-0.079000004 1.9529999 -0.46399999
-0.079000004 1.952 -0.46200001
-0.078000002 1.951 -0.45899999
-0.078000002 1.949 -0.45699999
-0.078000002 1.948 -0.45500001
-0.078000002 1.947 -0.45300001
-0.077 1.988 -0.50599998
-0.077 1.9859999 -0.50400001
-0.077 1.985 -0.50099999
-0.077 1.984 -0.49900001
-0.077 1.982 -0.49599999
-0.077 1.978 -0.49200001
-0.075999998 1.974 -0.48899999
-0.075999998 1.972 -0.48699999
-0.075999998 1.969 -0.484
-0.075999998 1.966 -0.48100001
-0.075999998 1.964 -0.479
-0.075999998 1.962 -0.47600001
-0.075999998 1.96 -0.47400001
-0.075999998 1.9579999 -0.47099999
-0.075999998 1.956 -0.46900001
-0.075999998 1.954 -0.46599999
-0.075999998 1.952 -0.46399999
-0.075999998 1.951 -0.461
-0.075000003 1.95 -0.45899999
-0.075000003 1.948 -0.45699999
-0.075000003 1.947 -0.45500001
-0.074000001 1.988 -0.50800002
-0.074000001 1.983 -0.505
-0.074000001 1.9809999 -0.50199997
-0.074000001 1.98 -0.5
-0.074000001 1.98 -0.498
-0.072999999 1.978 -0.495
-0.072999999 1.974 -0.49200001
-0.072999999 1.971 -0.48899999
-0.072999999 1.969 -0.486
-0.072999999 1.967 -0.484
-0.072999999 1.964 -0.48100001
-0.072999999 1.962 -0.479
-0.072999999 1.96 -0.47600001
-0.072999999 1.9579999 -0.47400001
-0.072999999 1.956 -0.47099999
-0.072999999 1.954 -0.46799999
-0.072999999 1.951 -0.465
-0.071999997 1.95 -0.463
-0.071999997 1.948 -0.461
-0.071999997 1.948 -0.45899999
-0.071999997 1.947 -0.456
-0.07 1.988 -0.50999999
-0.07 1.984 -0.50700003
-0.07 1.98 -0.50400001
-0.07 1.978 -0.50099999
-0.07 1.977 -0.498
-0.07 1.978 -0.49700001
-0.07 1.976 -0.495
-0.07 1.972 -0.49200001
-0.068999998 1.969 -0.48899999
-0.068999998 1.967 -0.486
-0.068999998 1.964 -0.48300001
-0.068999998 1.962 -0.47999999
-0.068999998 1.959 -0.47799999
-0.068999998 1.957 -0.47499999
-0.068999998 1.955 -0.47299999
-0.068999998 1.9529999 -0.47
-0.068999998 1.952 -0.46799999
-0.068999998 1.951 -0.465
-0.068999998 1.95 -0.463
-0.068999998 1.947 -0.46000001
-0.068000004 1.946 -0.458
-0.067000002 1.9859999 -0.509
-0.067000002 1.985 -0.50700003
-0.067000002 1.983 -0.50400001
-0.067000002 1.9809999 -0.50199997
-0.067000002 1.98 -0.49900001
-0.067000002 1.98 -0.498
-0.067000002 1.979 -0.495
-0.067000002 1.975 -0.49200001
-0.067000002 1.972 -0.48899999
-0.066 1.97 -0.486
-0.066 1.966 -0.48300001
-0.066 1.962 -0.47999999
-0.066 1.959 -0.47799999
-0.066 1.957 -0.47499999
-0.066 1.954 -0.47299999
-0.066 1.952 -0.47
-0.066 1.95 -0.46700001
-0.066 1.948 -0.465
-0.066 1.947 -0.46200001
-0.066 1.947 -0.46000001
-0.066 1.946 -0.458
-0.064000003 1.984 -0.509
-0.064000003 1.9859999 -0.50700003
-0.064000003 1.985 -0.505
-0.064000003 1.983 -0.50199997
-0.064000003 1.982 -0.5
-0.064000003 1.983 -0.498
-0.064000003 1.9809999 -0.49599999
-0.064000003 1.977 -0.49200001
-0.064000003 1.974 -0.49000001
-0.063000001 1.971 -0.486
-0.063000001 1.9680001 -0.484
-0.063000001 1.962 -0.47999999
-0.063000001 1.959 -0.47799999
-0.063000001 1.957 -0.47499999
-0.063000001 1.955 -0.472
-0.063000001 1.952 -0.47
-0.063000001 1.949 -0.46700001
-0.063000001 1.947 -0.46399999
-0.063000001 1.946 -0.46200001
-0.063000001 1.946 -0.46000001
-0.061000001 1.9809999 -0.50800002
-0.061000001 1.985 -0.50700003
-0.061000001 1.9859999 -0.505
-0.061000001 1.984 -0.50300002
-0.061000001 1.984 -0.5
-0.061000001 1.985 -0.49900001
-0.061000001 1.984 -0.49599999
-0.061000001 1.98 -0.493
-0.061000001 1.976 -0.49000001
-0.059999999 1.973 -0.48699999
-0.059999999 1.969 -0.484
-0.059999999 1.964 -0.48100001
-0.059999999 1.96 -0.47799999
-0.059999999 1.9579999 -0.47499999
-0.059999999 1.955 -0.472
-0.059999999 1.952 -0.47
-0.059999999 1.949 -0.46700001
-0.059999999 1.948 -0.46399999
-0.059999999 1.946 -0.46200001
-0.057999998 1.977 -0.50700003
-0.057999998 1.984 -0.50700003
-0.057999998 1.988 -0.50599998
-0.057999998 1.987 -0.50300002
-0.057999998 1.987 -0.50099999
-0.057999998 1.988 -0.5
-0.057999998 1.987 -0.49700001
-0.057999998 1.983 -0.49399999
-0.057999998 1.98 -0.491
-0.057999998 1.977 -0.48800001
-0.057 1.973 -0.48500001
-0.057 1.967 -0.48199999
-0.057 1.962 -0.479
-0.057 1.959 -0.47600001
-0.057 1.956 -0.47299999
-0.057 1.952 -0.47
-0.057 1.95 -0.46700001
-0.057 1.949 -0.465
-0.057 1.947 -0.463
-0.054000001 1.979 -0.50800002
-0.054000001 1.985 -0.50700003
-0.054000001 1.988 -0.50599998
-0.054000001 1.987 -0.50300002
-0.054000001 1.987 -0.50099999
-0.054000001 1.988 -0.49900001
-0.054000001 1.987 -0.49700001
-0.054000001 1.983 -0.49399999
-0.054000001 1.98 -0.491
-0.054000001 1.977 -0.48800001
-0.054000001 1.973 -0.48500001
-0.054000001 1.967 -0.48199999
-0.052999999 1.964 -0.479
-0.052999999 1.961 -0.47600001
-0.052999999 1.9579999 -0.47299999
-0.052999999 1.9529999 -0.47
-0.052999999 1.95 -0.46700001
-0.052999999 1.949 -0.465
-0.052999999 1.948 -0.463
-0.050999999 1.983 -0.509
-0.050999999 1.987 -0.50800002
-0.050999999 1.989 -0.50599998
-0.050999999 1.988 -0.50300002
-0.050999999 1.987 -0.50099999
-0.050999999 1.987 -0.49900001
-0.050999999 1.985 -0.49700001
-0.050999999 1.983 -0.49399999
-0.050999999 1.98 -0.491
-0.050999999 1.977 -0.48800001
-0.050999999 1.973 -0.48500001
-0.050000001 1.969 -0.48199999
-0.050000001 1.965 -0.479
-0.050000001 1.962 -0.47600001
-0.050000001 1.959 -0.47299999
-0.050000001 1.954 -0.47
-0.050000001 1.951 -0.46799999
-0.050000001 1.949 -0.465
-0.050000001 1.948 -0.463
-0.050000001 1.947 -0.46000001
-0.048 1.9809999 -0.50800002
-0.048 1.984 -0.50700003
-0.048 1.985 -0.505
-0.048 1.985 -0.50300002
-0.048 1.985 -0.5
-0.048 1.984 -0.498
-0.048 1.982 -0.49599999
-0.048 1.98 -0.493
-0.048 1.978 -0.491
-0.048 1.975 -0.48800001
-0.048 1.972 -0.48500001
-0.046999998 1.9680001 -0.48199999
-0.046999998 1.964 -0.479
-0.046999998 1.961 -0.47600001
-0.046999998 1.9579999 -0.47299999
-0.046999998 1.955 -0.47
-0.046999998 1.952 -0.46799999
-0.046999998 1.95 -0.465
-0.046999998 1.948 -0.463
-0.045000002 1.978 -0.50700003
-0.045000002 1.98 -0.50599998
-0.045000002 1.982 -0.50400001
-0.045000002 1.982 -0.50199997
-0.045000002 1.982 -0.5
-0.045000002 1.9809999 -0.49700001
-0.045000002 1.98 -0.495
-0.045000002 1.979 -0.493
-0.045000002 1.976 -0.49000001
-0.045000002 1.973 -0.48699999
-0.045000002 1.969 -0.484
-0.044 1.965 -0.48100001
-0.044 1.962 -0.47799999
-0.044 1.96 -0.47499999
-0.044 1.957 -0.47299999
-0.044 1.955 -0.47
-0.044 1.952 -0.46799999
-0.044 1.95 -0.465
-0.044 1.948 -0.463
-0.041999999 1.983 -0.50400001
-0.041999999 1.983 -0.50199997
-0.041999999 1.982 -0.5
-0.041999999 1.98 -0.49700001
-0.041999999 1.978 -0.495
-0.041999999 1.978 -0.493
-0.041999999 1.976 -0.49000001
-0.041999999 1.972 -0.48699999
-0.041000001 1.9680001 -0.484
-0.041000001 1.964 -0.48100001
-0.041000001 1.961 -0.47799999
-0.041000001 1.9579999 -0.47499999
-0.041000001 1.956 -0.47299999
-0.041000001 1.9529999 -0.47
-0.041000001 1.951 -0.46799999
-0.041000001 1.949 -0.465
-0.041000001 1.947 -0.463
-0.037999999 1.982 -0.50400001
-0.037999999 1.9809999 -0.50099999
-0.037999999 1.979 -0.49900001
-0.037999999 1.977 -0.49599999
-0.037999999 1.976 -0.49399999
-0.037999999 1.976 -0.49200001
-0.037999999 1.973 -0.49000001
-0.037999999 1.969 -0.48699999
-0.037 1.966 -0.484
-0.037 1.964 -0.48100001
