ply
format ascii 1.0
comment PCL generated
element vertex 1528
property float x
property float y
property float z
element face 0
element camera 0
property float view_px
property float view_py
property float view_pz
property float x_axisx
property float x_axisy
property float x_axisz
property float y_axisx
property float y_axisy
property float y_axisz
property float z_axisx
property float z_axisy
property float z_axisz
property float focal
property float scalex
property float scaley
property float centerx
property float centery
property int viewportx
property int viewporty
property float k1
property float k2
end_header
2.2624803 -1.3920147 3.5250001
2.3437831 -1.403072 3.553
2.9088888 -1.6107882 4.079
3.1029754 -1.6364566 4.1440001
3.196007 -1.6463289 4.1690001
2.8807406 -1.3576586 3.438
2.8949568 -1.3359393 3.3829999
2.8731439 -1.2988188 3.289
2.86759 -1.2703862 3.217
2.8694704 -1.2462975 3.1559999
2.8710306 -1.2229985 3.0969999
2.8572593 -1.194171 3.0239999
2.8726542 -1.1783751 2.984
2.8719156 -1.1566556 2.9289999
2.8801978 -1.1392802 2.885
2.8889439 -1.1226944 2.8429999
2.8899889 -1.1037394 2.7950001
2.8893223 -1.0847843 2.747
2.853786 -1.0535874 2.668
2.818696 -1.0235751 2.592
2.8251076 -1.0093588 2.556
2.840344 -0.99869657 2.529
2.8614633 -0.99040371 2.5079999
2.8238962 -0.96236598 2.437
2.8320379 -0.95051908 2.4070001
2.8498597 -0.94222611 2.3859999
2.8632963 -0.93274862 2.362
2.8549662 -0.91655791 2.3210001
2.8626447 -0.90589553 2.2939999
2.8605011 -0.89246905 2.26
2.8468769 -0.87588328 2.2179999
-0.19122002 -0.81033796 2.1489999
-0.15334134 -0.81260049 2.155
-0.11524875 -0.81486291 2.161
-0.077013277 -0.8178795 2.1689999
6.078749e-05 -0.15988055 0.42399999
0.0076904013 -0.16138886 0.428
0.015426819 -0.1625201 0.43099999
0.023162952 -0.16289718 0.43200001
0.031149063 -0.16440547 0.43599999
0.03900997 -0.16478255 0.43700001
0.047013622 -0.1655367 0.43900001
0.055088568 -0.16629086 0.44100001
0.20248342 -0.35671461 0.94599998
0.22027321 -0.35822293 0.94999999
0.23770621 -0.35897711 0.95200002
0.2562806 -0.36123955 0.958
0.27735156 -0.36651862 0.972
0.30043748 -0.37368309 0.991
0.32548475 -0.3823559 1.0140001
0.35338476 -0.39329109 1.043
0.4040482 -0.40686584 1.079
1.7469479 -1.2315328 3.266
2.4308271 -1.3529515 3.5880001
2.4947827 -1.3529515 3.5880001
2.5779932 -1.3631326 3.615
2.6475465 -1.3657721 3.622
3.19754 -1.5727873 4.171
3.3871505 -1.5920182 4.2220001
2.8757131 -1.2941275 3.4319999
2.8795538 -1.2688633 3.365
2.8649156 -1.2119248 3.214
2.8621969 -1.1870377 3.148
2.8617604 -1.1640359 3.0869999
2.8553698 -1.139526 3.0220001
2.8736169 -1.1255742 2.9849999
2.8660328 -1.1021954 2.9230001
2.8791995 -1.0874895 2.8840001
2.8757339 -1.0671272 2.8299999
2.8951585 -1.0558149 2.8
2.8882706 -1.0354528 2.7460001
2.8430898 -1.0022701 2.658
2.8197832 -0.97776008 2.5929999
2.8262129 -0.9641853 2.5569999
2.8459594 -0.95551252 2.5339999
2.8557587 -0.94382322 2.503
2.8273726 -0.92006737 2.4400001
2.8461568 -0.91214865 2.4189999
2.8498597 -0.89970517 2.3859999
2.8584473 -0.88914704 2.358
2.8549662 -0.87519526 2.3210001
2.8451746 -0.85973501 2.28
2.817467 -0.83937293 2.2260001
2.8199227 -0.82843769 2.197
2.834358 -0.82127321 2.178
-0.16380653 -0.36715934 1.022
-0.14801127 -0.37326676 1.039
-0.13098681 -0.37757778 1.051
-0.15462214 -0.78066278 2.1730001
-0.11599538 -0.78138119 2.175
-0.077581383 -0.7849738 2.1849999
-0.038757831 -0.78748858 2.1919999
6.0930859e-05 -0.15268369 0.42500001
0.0076904013 -0.15376146 0.428
0.015426819 -0.15483923 0.43099999
0.02321657 -0.15555774 0.433
0.031149063 -0.15663551 0.43599999
0.039099235 -0.15735401 0.43799999
0.047120713 -0.15807252 0.44
0.055213481 -0.15879105 0.442
0.20633617 -0.34632254 0.96399999
0.22351934 -0.34632254 0.96399999
0.24120189 -0.34704107 0.96600002
0.26056084 -0.34991509 0.97399998
0.28220236 -0.35530394 0.98900002
0.30559132 -0.36212981 1.008
0.32837361 -0.36751863 1.023
0.39730781 -0.38117033 1.061
1.7331337 -1.3967863 3.888
1.4533538 -1.1262668 3.135
1.7326825 -1.203866 3.3510001
1.731971 -1.1632701 3.2379999
1.8515918 -1.2035067 3.3499999
2.6563182 -1.3055353 3.6340001
2.7510452 -1.3199055 3.674
2.8241999 -1.3234981 3.684
2.9086931 -1.3321203 3.7079999
2.878227 -1.2340435 3.4349999
2.8795538 -1.2088957 3.365
2.8705232 -1.1805143 3.286
2.8631327 -1.1539295 3.2119999
2.8567414 -1.1287816 3.142
2.8441467 -1.1021967 3.0680001
2.8648183 -1.0892634 3.0320001
2.8659155 -1.0695044 2.977
2.865052 -1.0497452 2.9219999
2.8692164 -1.0325011 2.8740001
2.87675 -1.017053 2.8310001
2.8899889 -1.0041199 2.7950001
2.8745971 -0.98184597 2.733
2.8420203 -0.95454258 2.6570001
2.8154335 -0.93011308 2.589
2.8195813 -0.91646141 2.5510001
2.8414671 -0.90891701 2.53
2.8580408 -0.89993566 2.5050001
2.8308489 -0.87766182 2.4430001
2.8496866 -0.87011743 2.4219999
2.847471 -0.85646576 2.3840001
2.8269293 -0.83778441 2.332
2.8045337 -0.81910312 2.28
2.8164732 -0.81084019 2.257
2.817467 -0.7997033 2.2260001
2.8289073 -0.79179966 2.204
2.8317554 -0.78174055 2.1760001
2.8336051 -0.77168131 2.148
-0.14929336 -0.35782355 1.048
-0.13210848 -0.36192077 1.0599999
-0.11417539 -0.36499372 1.069
6.0930859e-05 -0.14510976 0.42500001
0.0076904013 -0.14613406 0.428
0.015426819 -0.14715835 0.43099999
0.023270186 -0.14818266 0.43399999
0.031149063 -0.14886554 0.43599999
0.03900997 -0.14920697 0.43700001
0.047227807 -0.15057272 0.44100001
0.055338398 -0.15125558 0.44299999
0.21382764 -0.3410933 0.99900001
0.23140281 -0.34075186 0.99800003
0.25019079 -0.34211758 1.002
0.26938885 -0.34382474 1.007
0.28990659 -0.34689766 1.016
0.3125641 -0.35201919 1.031
0.3322255 -0.35338491 1.035
1.4570625 -1.0731293 3.1429999
1.7238923 -1.1383435 3.3340001
1.7207384 -1.0983955 3.217
1.8433013 -1.1386849 3.335
2.4386444 -1.3343269 3.908
2.5102298 -1.3353511 3.911
2.3840806 -1.2015088 3.5190001
2.3543293 -1.156098 3.3859999
2.600765 -1.2148247 3.5580001
2.6469638 -1.2069718 3.5350001
3.0277369 -1.2885746 3.7739999
2.8698478 -1.1694138 3.425
2.8709965 -1.1455134 3.355
2.8644083 -1.1195644 3.279
2.8533278 -1.0929325 3.201
2.8558326 -1.0724465 3.141
2.850636 -1.0499117 3.075
2.8610389 -1.0338644 3.0280001
2.8611021 -1.0147439 2.9719999
2.8581884 -0.99528217 2.915
2.8662214 -0.98025912 2.8710001
2.8676045 -0.96352881 2.822
2.8910227 -0.95465147 2.796
2.8598716 -0.92836106 2.7190001
2.8291843 -0.90309483 2.645
2.8154335 -0.88397443 2.589
2.8151598 -0.86963421 2.5469999
2.8336053 -0.86143976 2.523
2.8511951 -0.85324538 2.4990001
2.8157852 -0.8296864 2.4300001
2.8037999 -0.81363887 2.3829999
2.8104441 -0.80339587 2.3529999
2.8257172 -0.79588437 2.3310001
2.7996137 -0.77710545 2.276
2.8314478 -0.77471536 2.2690001
2.8288581 -0.76310652 2.2349999
2.8237731 -0.75115639 2.2
2.8252485 -0.74125475 2.171
2.8415203 -0.73545039 2.154
-0.1740088 -0.31617057 0.977
-0.16428737 -0.33170399 1.025
-0.14943583 -0.33947077 1.049
-0.13285626 -0.34497219 1.066
-0.11481623 -0.34788471 1.075
6.1074221e-05 -0.13785942 0.426
0.0076904013 -0.13850665 0.428
0.015426819 -0.13947749 0.43099999
0.02321657 -0.14012472 0.433
0.031149063 -0.14109556 0.43599999
0.039188508 -0.1420664 0.43900001
0.047227807 -0.14271364 0.44100001
0.055338398 -0.14336085 0.44299999
0.064091265 -0.14530255 0.449
0.25593367 -0.33170399 1.025
0.27527425 -0.33299851 1.029
0.2970401 -0.33688185 1.041
0.31589895 -0.3372055 1.0420001
1.4552082 -1.0158234 3.1389999
1.6928685 -1.0595112 3.2739999
1.7191337 -1.0400944 3.214
1.8278252 -1.0701904 3.3069999
1.8302888 -1.0381527 3.2079999
2.465477 -1.2785976 3.951
2.5487399 -1.2850699 3.971
2.3820481 -1.1378257 3.516
2.3536341 -1.0954323 3.385
2.5649478 -1.1355604 3.5090001
2.6447175 -1.1430035 3.5320001
2.8580029 -1.1277936 3.4849999
2.8631446 -1.105788 3.4170001
2.8701406 -1.0854003 3.3540001
2.867029 -1.0621002 3.2820001
2.8568931 -1.0371819 3.2049999
2.8440125 -1.0122637 3.128
2.8367305 -0.99025786 3.0599999
2.8591492 -0.97925502 3.026
2.8659155 -0.96339792 2.977
2.8562276 -0.94268674 2.9130001
2.8632262 -0.92812401 2.868
2.8777661 -0.91647393 2.832
2.8910227 -0.90482384 2.796
2.8535609 -0.87796396 2.7130001
2.8238363 -0.8543402 2.6400001
2.8110838 -0.83654135 2.585
2.8018966 -0.82036072 2.5350001
2.799912 -0.80676889 2.493
2.8055577 -0.79576606 2.4590001
2.82042 -0.78767574 2.434
2.8249784 -0.77699649 2.401
2.8235829 -0.76502281 2.3640001
2.8245049 -0.7540198 2.3299999
2.802074 -0.73719198 2.2780001
2.8252084 -0.73266137 2.2639999
2.817467 -0.72036409 2.2260001
2.8045201 -0.70709586 2.1849999
2.7823038 -0.69188607 2.138
2.7570922 -0.67635262 2.0899999
-0.17555337 -0.27399024 0.89600003
-0.17240585 -0.29600728 0.96799999
-0.16172288 -0.30854475 1.0089999
-0.14801127 -0.31771857 1.039
-0.13248238 -0.3250576 1.063
-0.11481623 -0.32872713 1.075
-0.087913737 -0.75714266 2.4760001
-0.04395619 -0.76020056 2.4860001
6.1074221e-05 -0.13026766 0.426
0.0076904013 -0.13087925 0.428
0.015426819 -0.13179663 0.43099999
0.023270186 -0.13271402 0.43399999
0.031220507 -0.13363139 0.43700001
0.039099235 -0.13393717 0.43799999
0.047227807 -0.13485457 0.44100001
0.055463322 -0.13577195 0.44400001
0.06466224 -0.13852407 0.45300001
0.2609168 -0.37276122 1.219
0.28658703 -0.3779597 1.2359999
0.31036642 -0.38010028 1.243
0.33198771 -0.37948868 1.2410001
0.35582036 -0.38132343 1.247
0.38593027 -0.38927406 1.273
1.3970271 -0.95835418 3.1340001
1.67322 -0.98954505 3.2360001
1.71325 -0.97945392 3.2030001
1.8211927 -1.0075868 3.2950001
1.8228716 -0.97700751 3.1949999
2.4679732 -1.2094098 3.9549999
2.5551584 -1.2173605 3.9809999
2.3515482 -1.0341908 3.382
2.5287864 -1.0843407 3.546
2.5510595 -1.0672164 3.49
2.6327367 -1.0751669 3.516
2.6593783 -1.0607947 3.4690001
3.2428632 -1.2641468 4.1339998
3.3157492 -1.263841 4.1329999
2.852262 -1.0635468 3.4779999
2.8581171 -1.0430588 3.411
2.8555932 -1.02043 3.3369999
2.844414 -0.9757843 3.191
2.8367388 -0.95407301 3.1199999
2.8534799 -0.9234938 3.02
2.8639901 -0.90973312 2.9749999
2.8630912 -0.89291459 2.9200001
2.8602312 -0.87609595 2.865
2.8747177 -0.86508739 2.829
2.8775809 -0.85102099 2.783
2.8220067 -0.82044172 2.6830001
2.7917471 -0.79811877 2.6099999
2.798034 -0.7868045 2.573
2.8063178 -0.77640754 2.539
2.8167586 -0.7669279 2.5079999
2.8203897 -0.7559194 2.4719999
2.8285315 -0.74643987 2.441
2.8214486 -0.73329079 2.398
2.8247774 -0.72319967 2.365
2.8135948 -0.70974481 2.3210001
2.7910032 -0.69384354 2.2690001
2.8039942 -0.68711609 2.247
2.779496 -0.67152071 2.1960001
2.7724321 -0.66051215 2.1600001
2.7731943 -0.65164411 2.131
2.50249 -0.58008862 1.897
-0.17672893 -0.2597504 0.90200001
-0.17418692 -0.28163624 0.97799999
-0.16140233 -0.28998742 1.007
-0.1460169 -0.2951709 1.025
-0.13098681 -0.30265817 1.051
-0.11353455 -0.30611384 1.063
-0.096188381 -0.3112973 1.081
-0.0074439086 -0.12123605 0.421
6.1074221e-05 -0.12267591 0.426
0.0076904013 -0.12325186 0.428
0.015426819 -0.12411577 0.43099999
0.02321657 -0.12469171 0.433
0.031149063 -0.12555562 0.43599999
0.039099235 -0.12613156 0.43799999
0.047227807 -0.12699549 0.44100001
0.055463322 -0.1278594 0.44400001
0.065233201 -0.13160302 0.45699999
0.26177299 -0.3521893 1.223
0.28728265 -0.35679683 1.239
0.31086582 -0.35852465 1.245
0.3335928 -0.35910061 1.247
0.35781774 -0.36111638 1.2539999
0.3901746 -0.37061948 1.2869999
1.3965813 -0.90221506 3.1329999
1.6794248 -0.93533182 3.2479999
1.7062964 -0.91862947 3.1900001
1.8001896 -0.93792355 3.257
1.8211601 -0.91920537 3.1919999
2.4661012 -1.1380639 3.9519999
2.5558002 -1.146703 3.9820001
2.3000717 -0.97766364 3.395
2.3390326 -0.96873659 3.3640001
2.5230815 -1.0188437 3.5380001
2.6192586 -1.0073247 3.4979999
2.6655111 -1.0012773 3.477
3.2938516 -1.2091929 4.1989999
3.3903592 -1.2169681 4.2259998
2.849802 -1.0007013 3.4749999
2.8681722 -0.98572689 3.4230001
2.8607275 -0.9626891 3.3429999
2.8321929 -0.89703161 3.115
2.8376575 -0.88148117 3.0610001
2.8506453 -0.86881036 3.017
2.8553262 -0.85412383 2.9660001
2.8523054 -0.83770943 2.9089999
2.8232927 -0.81438375 2.8280001
2.7974894 -0.79278582 2.753
2.7876244 -0.77637154 2.6960001
2.7894003 -0.76370072 2.652
2.8067222 -0.75563753 2.6240001
2.8176084 -0.74613446 2.5910001
2.8173707 -0.73403966 2.549
2.8223741 -0.72367269 2.513
2.816967 -0.71100193 2.4690001
2.7995622 -0.69573939 2.4159999
2.8002703 -0.68537247 2.3800001
2.7913337 -0.67298967 2.3369999
2.7966232 -0.66435051 2.3069999
2.788543 -0.65283167 2.267
2.7902677 -0.64390451 2.2360001
2.7845585 -0.63353759 2.2
2.780133 -0.62374651 2.1659999
2.544704 -0.55549729 1.929
2.4761384 -0.53332347 1.852
2.5376017 -0.53937083 1.873
-0.18917313 -0.23908326 0.88499999
-0.17731673 -0.24448629 0.90499997
-0.17418692 -0.26420727 0.97799999
-0.16124207 -0.27177152 1.006
-0.1460169 -0.27690434 1.025
-0.12974051 -0.28122675 1.041
-0.1126801 -0.28500885 1.0549999
-0.095832467 -0.29095218 1.077
-0.0074615898 -0.11400355 0.42199999
6.1074221e-05 -0.11508416 0.426
0.0077083693 -0.1158946 0.42899999
0.015462613 -0.11670506 0.43200001
0.023270186 -0.11724535 0.43399999
0.031149063 -0.11778565 0.43599999
0.039099235 -0.11832596 0.43799999
0.047227807 -0.11913642 0.44100001
0.055463322 -0.11994687 0.44400001
0.06566143 -0.12426927 0.46000001
0.26262912 -0.33147478 1.227
0.28728265 -0.33471656 1.239
0.31036642 -0.33579719 1.243
0.33386031 -0.33714792 1.248
0.36095652 -0.34174049 1.265
0.39229679 -0.34957486 1.294
1.3921237 -0.84368026 3.1229999
1.6830443 -0.87934023 3.2550001
1.7046918 -0.86096996 3.187
1.7808444 -0.87042516 3.2219999
1.8194485 -0.86151016 3.1889999
1.9157124 -0.8796103 3.256
2.4667253 -1.0679053 3.9530001
2.326494 -0.92769712 3.434
2.3571107 -0.91581053 3.3900001
2.5576382 -0.94525689 3.4990001
2.6065292 -0.94039416 3.4809999
2.6693442 -0.94066435 3.4820001
3.3975799 -1.1440877 4.2350001
2.8580029 -0.9414748 3.4849999
2.877389 -0.92769712 3.434
2.84618 -0.89852089 3.326
2.8652816 -0.88609391 3.28
2.8533278 -0.86475205 3.201
2.8209708 -0.82206827 3.043
2.8374174 -0.81126225 3.003
2.8023784 -0.78640836 2.911
2.7856309 -0.76749784 2.8410001
2.7933428 -0.75588137 2.7980001
2.7924085 -0.74237376 2.7479999
2.7958961 -0.73048717 2.704
2.7936075 -0.71751994 2.6559999
2.8174183 -0.7115767 2.6340001
2.8034716 -0.69644821 2.5780001
2.7897384 -0.68186009 2.5239999
2.7841885 -0.6697033 2.4790001
2.7758937 -0.65727639 2.4330001
2.7647994 -0.64457929 2.3859999
2.7755618 -0.63728523 2.359
2.7746119 -0.62755984 2.323
2.7881377 -0.62134635 2.3
2.788543 -0.61243135 2.267
2.7927632 -0.60459703 2.2379999
2.7845585 -0.59433132 2.2
2.7711482 -0.58325511 2.1589999
2.5499806 -0.52220106 1.933
2.4574206 -0.49653679 1.8380001
2.5240533 -0.50329053 1.863
-0.20355865 -0.22179769 0.87900001
-0.18938689 -0.22356398 0.88599998
-0.17868824 -0.23012456 0.912
-0.17596796 -0.2493016 0.98799998
-0.16300513 -0.25661916 1.017
-0.14615935 -0.25889012 1.026
-0.12836957 -0.25989944 1.03
-0.11171886 -0.26393673 1.046
-0.095209599 -0.26999262 1.0700001
-0.078058213 -0.27680552 1.097
-0.0074615898 -0.10648307 0.42199999
6.1074221e-05 -0.10749239 0.426
0.0077083693 -0.10824938 0.42899999
0.015426819 -0.10875404 0.43099999
0.023270186 -0.10951103 0.43399999
0.031149063 -0.11001568 0.43599999
0.039099235 -0.11052034 0.43799999
0.047120713 -0.11102501 0.44
0.055588234 -0.11228665 0.44499999
0.065804169 -0.11632393 0.461
0.26284319 -0.30986071 1.228
0.28705078 -0.31238398 1.238
0.31061611 -0.31389797 1.244
0.33439532 -0.31541193 1.25
0.36466596 -0.32247719 1.278
0.39229679 -0.32651445 1.294
1.3943524 -0.78928685 3.128
1.6835613 -0.82158506 3.256
1.7052267 -0.80442661 3.188
1.7708957 -0.80846393 3.204
1.8228716 -0.80619287 3.1949999
1.916889 -0.82208967 3.2579999
2.4704692 -0.99897271 3.9590001
2.3312361 -0.86826599 3.441
2.417603 -0.87734985 3.477
2.5116711 -0.88870472 3.5220001
2.5598311 -0.88365811 3.5020001
2.6012876 -0.87659287 3.474
2.6693442 -0.87861156 3.4820001
3.4023936 -1.0701296 4.2410002
2.8530824 -0.87785453 3.4790001
2.8824165 -0.86801374 3.4400001
2.8598719 -0.84328538 3.342
2.854799 -0.82461298 3.2679999
2.8012798 -0.77742738 3.0810001
2.800576 -0.76228756 3.0209999
2.799623 -0.74765247 2.9630001
2.8081546 -0.7360453 2.9170001
2.8003385 -0.72065318 2.8559999
2.7983344 -0.70727974 2.803
2.8046026 -0.69642961 2.76
2.793828 -0.6817944 2.7019999
2.7894003 -0.66917795 2.652
2.7842596 -0.65681386 2.6029999
2.7806346 -0.64520663 2.5569999
2.7731593 -0.63309491 2.5090001
2.7606032 -0.62022603 2.4579999
2.7713296 -0.61290842 2.4289999
2.7775459 -0.60483396 2.3970001
2.7861512 -0.59751636 2.368
2.7913337 -0.58969414 2.3369999
2.7808642 -0.57884395 2.2939999
2.763942 -0.56698447 2.247
2.7740452 -0.56092864 2.223
2.7643073 -0.55108774 2.184
2.7595966 -0.54250854 2.1500001
2.5181279 -0.48825768 1.9349999
2.4602761 -0.47059461 1.865
2.4440503 -0.46125841 1.8279999
2.4956019 -0.46479106 1.842
2.5352986 -0.46605268 1.847
-0.21822909 -0.20519497 0.875
-0.20379023 -0.20636751 0.88
-0.18938689 -0.20777455 0.88599998
-0.17947195 -0.21480981 0.91600001
-0.1768585 -0.23286696 0.99299997
-0.16364627 -0.2394332 1.021
-0.1475839 -0.24295084 1.036
-0.12998977 -0.2445924 1.043
-0.1126801 -0.24740648 1.0549999
-0.076232143 -0.50348985 2.1470001
-0.0074792719 -0.099197105 0.42300001
6.1074221e-05 -0.099900626 0.426
0.0077083693 -0.10060415 0.42899999
0.015426819 -0.10107317 0.43099999
0.023270186 -0.1017767 0.43399999
0.031220507 -0.10248023 0.43700001
0.039188508 -0.10294925 0.43900001
0.047227807 -0.10341827 0.44100001
0.055838071 -0.10482531 0.447
0.26305723 -0.28821099 1.229
0.28705078 -0.29032156 1.238
0.31036642 -0.2914941 1.243
0.33600044 -0.2945427 1.256
0.36466596 -0.2997019 1.278
0.39138728 -0.3027505 1.291
1.3296096 -0.72861803 3.1070001
1.3925694 -0.73260462 3.1240001
1.4607712 -0.73893636 3.151
1.6825272 -0.76309073 3.2539999
1.7052267 -0.74761313 3.188
1.7592887 -0.74644065 3.1830001
1.8217307 -0.74878573 3.1930001
1.9210078 -0.76567036 3.2650001
2.4698453 -0.92818469 3.9579999
2.342464 -0.83273977 3.5510001
2.3258166 -0.80506778 3.4330001
2.5664096 -0.82335943 3.5109999
2.5937996 -0.81233758 3.464
2.6701107 -0.8167932 3.483
3.3991845 -0.99361259 4.237
2.8506222 -0.81515163 3.4760001
2.86901 -0.80295718 3.424
2.8277185 -0.75910407 3.237
2.7994614 -0.72205174 3.079
2.8154085 -0.71220237 3.0369999
2.8015125 -0.6953178 2.9649999
2.7869754 -0.67890221 2.895
2.7673862 -0.65005767 2.7720001
2.7639561 -0.63786322 2.72
2.782454 -0.63106245 2.691
2.785193 -0.62097859 2.648
2.7821205 -0.60995668 2.6010001
2.786072 -0.60081089 2.562
2.7886331 -0.59166497 2.523
2.7875581 -0.5820502 2.4820001
2.7815981 -0.57173175 2.438
2.776387 -0.56188244 2.3959999
2.7649724 -0.55109501 2.3499999
2.76864 -0.54359078 2.3180001
2.7663178 -0.53514844 2.2820001
2.766402 -0.52740973 2.2490001
2.76531 -0.5196709 2.2160001
2.7782297 -0.51474619 2.1949999
2.4725804 -0.44556618 1.9
2.4378502 -0.43337175 1.848
2.4507351 -0.42985409 1.8329999
2.4915373 -0.43126118 1.839
2.5462799 -0.43501332 1.855
2.4959159 -0.42094281 1.795
-0.21847849 -0.18981825 0.87599999
-0.20355865 -0.1904683 0.87900001
-0.18938689 -0.19198512 0.88599998
-0.17986381 -0.1989191 0.91799998
-0.14915092 -0.22687182 1.0470001
-0.13048831 -0.22687182 1.0470001
-0.11370214 -0.46197772 2.132
-0.076019101 -0.46392792 2.141
-0.0074792719 -0.091658816 0.42300001
6.1074221e-05 -0.092308871 0.426
0.0077083693 -0.092958935 0.42899999
0.015426819 -0.093392313 0.43099999
0.023323806 -0.094259061 0.435
0.031220507 -0.094692431 0.43700001
0.039188508 -0.095125809 0.43900001
0.047227807 -0.095559187 0.44100001
0.055713154 -0.096642621 0.44600001
0.06608966 -0.10032631 0.463
0.26241508 -0.26565886 1.226
0.28681892 -0.26804242 1.237
0.31036642 -0.26934257 1.243
0.33840805 -0.27410966 1.265
0.36466596 -0.27692664 1.278
0.38896197 -0.27801004 1.283
1.5621285 -0.82536268 3.809
1.3308934 -0.67389804 3.1099999
1.3947982 -0.67801517 3.1289999
1.4579897 -0.6814822 3.145
1.6551228 -0.69361669 3.201
1.7068312 -0.69144976 3.191
1.7526561 -0.68711603 3.171
1.820019 -0.69123316 3.1900001
1.9192426 -0.70683461 3.2620001
2.4717174 -0.85829914 3.961
2.5551584 -0.86263287 3.9809999
2.33059 -0.76555693 3.533
2.3298814 -0.7451883 3.4389999
2.5045171 -0.78050834 3.602
2.4974084 -0.75883967 3.5020001
2.5561762 -0.75775617 3.497
2.5952973 -0.75103891 3.4660001
2.6770105 -0.75667274 3.4920001
2.8251994 -0.74648839 3.4449999
2.8421967 -0.73500395 3.392
2.8513143 -0.72200274 3.332
2.7830956 -0.66328043 3.0610001
2.7542696 -0.63164407 2.915
2.7522933 -0.6082418 2.8069999
2.7683845 -0.60087442 2.773
2.7771661 -0.5922069 2.733
2.7731483 -0.58115584 2.6819999
2.787297 -0.57422185 2.6500001
2.7853293 -0.56425422 2.6040001
2.7708478 -0.55211973 2.5480001
2.7687383 -0.54280216 2.5050001
2.7617264 -0.53283459 2.4590001
2.7679069 -0.52568388 2.4260001
2.7647994 -0.51701635 2.3859999
2.7732089 -0.51073247 2.3570001
2.7961113 -0.50726545 2.3410001
2.449156 -0.40780586 1.882
2.4378502 -0.40043852 1.848
2.4453874 -0.39632145 1.829
2.4928923 -0.39870501 1.84
2.5147088 -0.39697149 1.832
2.4903541 -0.3880873 1.791
-0.23329139 -0.17361042 0.87300003
-0.21822909 -0.17400816 0.875
-0.20379023 -0.17500249 0.88
-0.18917313 -0.17599681 0.88499999
-0.17104697 -0.17361042 0.87300003
-0.18935142 -0.42318782 2.128
-0.15234515 -0.42577311 2.141
-0.11375547 -0.42418215 2.1329999
-0.075841561 -0.42477876 2.1359999
-0.007496953 -0.084319383 0.42399999
6.1074221e-05 -0.08471711 0.426
0.0077083693 -0.085313715 0.42899999
0.015426819 -0.085711442 0.43099999
0.023270186 -0.086308047 0.43399999
0.031149063 -0.086705774 0.43599999
0.039099235 -0.087103508 0.43799999
0.047227807 -0.087700106 0.44100001
0.055713154 -0.088694438 0.44600001
0.26284319 -0.24420802 1.228
0.28612331 -0.2454012 1.234
0.31036642 -0.24719103 1.243
0.33974564 -0.25256041 1.27
0.36380991 -0.25355473 1.275
0.38926512 -0.25534454 1.284
1.482465 -0.75151634 3.779
1.3338891 -0.61986679 3.1170001
1.3939068 -0.62185544 3.1270001
1.462162 -0.6272248 3.154
1.7052267 -0.63398623 3.188
1.7498925 -0.62961119 3.1659999
1.8188779 -0.63398623 3.188
2.3805027 -0.78094864 3.927
2.4717174 -0.78771007 3.961
2.3259723 -0.70120311 3.526
2.3278489 -0.6833052 3.4360001
2.5024312 -0.71572036 3.599
2.4810064 -0.69185644 3.4790001
2.5532525 -0.69464058 3.493
2.5997899 -0.69046438 3.4719999
2.6785436 -0.69483942 3.494
2.7784765 -0.70438504 3.5420001
2.8287761 -0.70120311 3.526
2.8260195 -0.68529385 3.4460001
2.8606308 -0.6789301 3.414
2.7867324 -0.60952574 3.0650001
2.7637184 -0.58168441 2.925
2.7629082 -0.57074672 2.8699999
2.7640593 -0.56060451 2.819
2.770381 -0.55185449 2.7750001
2.7598915 -0.54012132 2.7160001
2.7472987 -0.5283882 2.6570001
2.7578461 -0.52142787 2.622
2.7553797 -0.51228005 2.576
2.764323 -0.50551856 2.5420001
2.7764752 -0.49955255 2.5120001
2.8268666 -0.50054687 2.517
2.4283345 -0.37108484 1.8660001
2.4272969 -0.36591431 1.84
2.4520724 -0.36472109 1.834
2.4969568 -0.3665109 1.8430001
2.4982367 -0.36193699 1.8200001
2.493135 -0.35656756 1.793
2.6264932 -0.37088597 1.865
-0.2474272 -0.15714742 0.86799997
-0.23329139 -0.15805267 0.87300003
-0.21872789 -0.15877683 0.87699997
-0.2040218 -0.15950102 0.88099998
-0.18917313 -0.16022521 0.88499999
-0.1894404 -0.38544571 2.1289999
-0.15213168 -0.38707513 2.138
-0.11375547 -0.38616988 2.1329999
-0.075664036 -0.38580781 2.131
-0.007496953 -0.076763257 0.42399999
6.1074221e-05 -0.077125356 0.426
0.0077083693 -0.077668488 0.42899999
0.015462613 -0.078211628 0.43200001
0.023323806 -0.07875476 0.435
0.031220507 -0.079116859 0.43700001
0.039277773 -0.079659991 0.44
0.047227807 -0.07984104 0.44100001
0.055838071 -0.080927305 0.447
0.26241508 -0.22196169 1.226
0.28612331 -0.22341006 1.234
0.31261361 -0.22666888 1.252
0.33921063 -0.22956561 1.268
0.36409527 -0.23101397 1.276
0.38987145 -0.23282441 1.286
1.4844264 -0.68507588 3.7839999
1.3330331 -0.5639565 3.115
1.3974729 -0.56757742 3.135
1.4640163 -0.57174146 3.158
1.7030871 -0.57644868 3.184
1.7482345 -0.57264668 3.1630001
1.8143137 -0.57572448 3.1800001
2.3811088 -0.71114641 3.928
2.4735892 -0.71766412 3.964
2.3127792 -0.6347453 3.506
2.4731615 -0.62786555 3.4679999
2.5554454 -0.63293487 3.4960001
2.597544 -0.62804663 3.4690001
2.6823766 -0.63347799 3.4990001
2.7808299 -0.64180607 3.5450001
2.8301198 -0.62478781 3.451
2.8380072 -0.6132009 3.3870001
2.805006 -0.58133692 3.211
2.8034101 -0.56938785 3.145
2.776731 -0.55291277 3.0539999
2.7746191 -0.54186898 2.993
2.7476556 -0.52648014 2.908
2.7436545 -0.51597947 2.8499999
2.7424881 -0.50638407 2.7969999
2.7487137 -0.48972788 2.7049999
3.0301495 -0.48846054 2.698
3.0964959 -0.4913573 2.714
3.1553013 -0.49298671 2.723
2.4502649 -0.34561574 1.909
2.4179235 -0.33638242 1.858
2.4233391 -0.33258045 1.837
2.4587574 -0.33294255 1.839
2.4983115 -0.33384776 1.844
2.4913735 -0.32859749 1.8150001
2.5084302 -0.32660598 1.804
2.6405761 -0.33946019 1.875
2.7053726 -0.34344316 1.897
-0.24714215 -0.14151555 0.86699998
-0.23302415 -0.14233167 0.87199998
-0.21847849 -0.14298457 0.87599999
-0.20355865 -0.14347425 0.87900001
-0.18960065 -0.14478005 0.88700002
-0.17045918 -0.14200522 0.87
-0.18952939 -0.34766799 2.1300001
-0.15191822 -0.3484841 2.135
-0.11364882 -0.34783119 2.131
-0.07573504 -0.34815764 2.1329999
-0.0074792719 -0.069043919 0.42300001
6.1074221e-05 -0.069533594 0.426
0.0077083693 -0.070023268 0.42899999
0.015462613 -0.070512943 0.43200001
0.023323806 -0.07100261 0.435
0.031220507 -0.071329065 0.43700001
0.039188508 -0.071655512 0.43900001
0.047334898 -0.072145186 0.442
0.055962987 -0.073124528 0.44800001
0.26327127 -0.20076601 1.23
0.28751454 -0.20239826 1.24
0.31336269 -0.20484661 1.255
0.33947814 -0.20713177 1.2690001
1.3327657 -0.60996956 3.737
1.4064921 -0.61307085 3.756
1.3390243 -0.51072913 3.1289999
1.3965813 -0.51138198 3.1329999
1.4691159 -0.51725811 3.1689999
1.6303037 -0.51464653 3.1530001
1.7009475 -0.51905364 3.1800001
1.7471291 -0.51595229 3.161
1.811461 -0.51823747 3.175
2.296972 -0.63722807 3.904
2.3835335 -0.64179832 3.9319999
2.4698453 -0.64604217 3.9579999
2.2949684 -0.56785768 3.4790001
2.4638908 -0.56394029 3.4549999
2.5532525 -0.57014287 3.493
2.5997899 -0.56671512 3.4719999
2.7792609 -0.57830405 3.543
2.8079174 -0.57128543 3.5
2.821099 -0.56149191 3.4400001
2.8271143 -0.55071914 3.3740001
2.7793427 -0.50893366 3.118
2.7630928 -0.49603894 3.039
2.7430999 -0.482981 2.9590001
3.3240402 -0.45425349 2.783
3.4172871 -0.46012959 2.819
3.483526 -0.46225148 2.832
2.433579 -0.30947345 1.896
2.408814 -0.30212834 1.851
2.4207008 -0.29951677 1.835
2.4560835 -0.29984322 1.837
2.4915373 -0.30016968 1.839
2.4982367 -0.29706842 1.8200001
2.5126016 -0.29494649 1.807
2.6264932 -0.3044135 1.865
2.7067988 -0.30979991 1.898
2.5904591 -0.2928246 1.794
-0.26138479 -0.1254831 0.86299998
-0.2474272 -0.12621012 0.86799997
-0.23302415 -0.12679173 0.87199998
-0.21847849 -0.12737334 0.87599999
-0.20425341 -0.12824577 0.88200003
-0.18938689 -0.12882738 0.88599998
-0.17829639 -0.13231708 0.91000003
-0.16581596 -0.13537054 0.93099999
-0.1527721 -0.31218103 2.1470001
-0.11338215 -0.30912754 2.1259999
-0.075344481 -0.30854595 2.122
-0.007496953 -0.061651029 0.42399999
6.1074221e-05 -0.061941836 0.426
0.0077083693 -0.062378045 0.42899999
0.015462613 -0.062814258 0.43200001
0.023323806 -0.063250467 0.435
0.031220507 -0.063541271 0.43700001
0.039188508 -0.063832074 0.43900001
0.047334898 -0.064268284 0.442
0.055713154 -0.064849898 0.44600001
0.064519487 -0.065722324 0.45199999
1.4094878 -0.54729831 3.7639999
1.4856032 -0.55064249 3.7869999
1.2578231 -0.44595212 3.0669999
1.3347448 -0.45351309 3.119
1.4059423 -0.45860222 3.154
1.633406 -0.45932922 3.1589999
1.6993428 -0.46194652 3.177
1.7476817 -0.45976543 3.1619999
2.296972 -0.56765479 3.904
2.3871708 -0.57259846 3.938
2.4767094 -0.577106 3.9690001
2.2896907 -0.50469506 3.471
2.4646041 -0.50251406 3.4560001
2.5466735 -0.5065853 3.484
2.5848143 -0.50193238 3.4519999
2.7729857 -0.51400089 3.5350001
2.7902672 -0.50571287 3.4779999
2.7973163 -0.49597088 3.411
2.7986252 -0.48564723 3.3399999
3.2669556 -0.46747181 3.2149999
2.3976402 -0.27161351 1.868
2.4062111 -0.26885083 1.849
2.4193816 -0.26666978 1.834
2.4641056 -0.2679784 1.8430001
2.4861181 -0.26681519 1.835
2.4982367 -0.26463416 1.8200001
2.5098207 -0.26245308 1.8049999
2.6124101 -0.26972324 1.855
2.6682932 -0.2720497 1.8710001
2.5817952 -0.25998122 1.788
-0.2751641 -0.10946564 0.85799998
-0.2610819 -0.10997598 0.86199999
-0.24714215 -0.11061388 0.86699998
-0.23302415 -0.11125179 0.87199998
-0.21847849 -0.11176212 0.87599999
-0.20379023 -0.11227246 0.88
-0.1898144 -0.11329311 0.88800001
-0.17810044 -0.11597235 0.90899998
-0.075983599 -0.27302623 2.1400001
-0.007496953 -0.054094911 0.42399999
6.1217594e-05 -0.054477654 0.42699999
0.0077263378 -0.054860406 0.43000001
0.015462613 -0.055115569 0.43200001
0.023270186 -0.055370733 0.43399999
0.031220507 -0.055753481 0.43700001
0.039188508 -0.056008648 0.43900001
0.047334898 -0.056391392 0.442
0.055463322 -0.056646556 0.44400001
0.064376749 -0.057539634 0.45100001
1.40799 -0.47970957 3.76
1.4871724 -0.48366463 3.7909999
1.3381684 -0.39894998 3.1270001
1.4104 -0.40367052 3.164
1.6772484 -0.44449684 3.484
1.6287526 -0.40188438 3.1500001
2.2975602 -0.49820903 3.905
2.3865645 -0.50229168 3.937
2.4742131 -0.50586396 3.9649999
2.3292706 -0.45049322 3.5309999
2.4596121 -0.44003147 3.4489999
2.5342474 -0.44232795 3.467
2.575829 -0.43888324 3.4400001
3.2197716 -0.53584582 4.1999998
2.714937 -0.44156244 3.461
2.7718153 -0.44079697 3.4549999
2.8555427 -0.44424173 3.4820001
2.9343669 -0.44679338 3.5020001
2.9865208 -0.44526234 3.49
3.0539711 -0.44602785 3.4960001
3.1153951 -0.44590026 3.4949999
3.1749656 -0.44551754 3.4920001
3.2566776 -0.44819674 3.513
3.4509888 -0.41859764 3.2809999
3.5426309 -0.4225527 3.312
3.5940549 -0.42165962 3.3050001
3.6861243 -0.4254871 3.335
3.9555192 -0.41630116 3.263
3.9570987 -0.4104324 3.217
3.9720135 -0.40609461 3.1830001
2.3796709 -0.23653765 1.854
2.3958004 -0.23487908 1.841
2.4167433 -0.23373084 1.832
2.4641056 -0.23513424 1.8430001
2.4847631 -0.23398601 1.834
2.5188267 -0.23411359 1.835
2.5098207 -0.23028611 1.8049999
2.6448011 -0.23959963 1.878
2.6668673 -0.23857898 1.87
2.5919027 -0.22901028 1.795
-0.28910375 -0.093736149 0.85399997
-0.27548483 -0.094284967 0.85900003
-0.26138479 -0.094724 0.86299998
-0.2474272 -0.095272809 0.86799997
-0.23302415 -0.09571185 0.87199998
-0.21847849 -0.096150905 0.87599999
-0.20379023 -0.096589945 0.88
-0.1898144 -0.097468041 0.88800001
-0.1777086 -0.099553503 0.90700001
-0.18596594 -0.38273767 3.487
-0.007496953 -0.046538793 0.42399999
6.1217594e-05 -0.046868075 0.42699999
0.0077263378 -0.047197364 0.43000001
0.015498405 -0.047526646 0.433
0.023323806 -0.04774617 0.435
0.031220507 -0.04796569 0.43700001
0.039277773 -0.048294973 0.44
0.047441989 -0.048624258 0.44299999
0.055713154 -0.048953541 0.44600001
0.06466224 -0.049721874 0.45300001
1.2570063 -0.40721446 3.71
1.3302692 -0.40940967 3.73
1.4109857 -0.41358057 3.7679999
1.487957 -0.41632462 3.793
1.4188696 -0.34937024 3.1830001
1.6863953 -0.38449383 3.503
1.7723 -0.38965264 3.55
1.6308208 -0.34618714 3.154
2.1290543 -0.42280054 3.852
2.2068446 -0.4245567 3.868
2.2975602 -0.42861789 3.905
2.3889894 -0.4325693 3.941
2.4748375 -0.43531334 3.9660001
2.5500648 -0.41314155 3.7639999
2.4653172 -0.37944484 3.457
2.519628 -0.37834722 3.447
2.6302178 -0.36802962 3.3529999
2.7052276 -0.3701151 3.372
2.7899356 -0.37340796 3.402
2.9343669 -0.3843841 3.5020001
3.3614328 -0.39799449 3.6259999
3.9042776 -0.37560317 3.4219999
3.9467337 -0.37384701 3.4059999
3.9521461 -0.36868823 3.359
3.9785764 -0.36561492 3.3310001
3.9797635 -0.36034635 3.283
3.9989207 -0.35683399 3.2509999
4.00945 -0.35266307 3.2130001
2.4187686 -0.20975386 1.911
2.4258778 -0.20744887 1.89
2.4010057 -0.20250961 1.845
2.4154239 -0.20097294 1.831
2.4707906 -0.2028389 1.848
2.4861181 -0.20141201 1.835
2.5449071 -0.20349745 1.854
2.5418019 -0.20064366 1.8279999
2.6532507 -0.20679028 1.8839999
2.6754239 -0.2059122 1.876
2.5947907 -0.19724107 1.7970001
-0.28944227 -0.078608938 0.85500002
-0.27580553 -0.079068638 0.86000001
-0.26168767 -0.079436392 0.86400002
-0.24799733 -0.07998804 0.87
-0.23302415 -0.080171913 0.87199998
-0.21872789 -0.080631614 0.87699997
-0.20425341 -0.081091322 0.88200003
-0.18960065 -0.081551023 0.88700002
-0.19829805 -0.12798086 1.392
-0.17398439 -0.12834863 1.396
-0.15016896 -0.12926804 1.406
-0.12617496 -0.1303713 1.418
-0.12491135 -0.32344589 3.5179999
-0.007496953 -0.038982674 0.42399999
6.1217594e-05 -0.039258499 0.42699999
0.0077263378 -0.039534319 0.43000001
0.015498405 -0.03981014 0.433
0.023323806 -0.03999402 0.435
0.031220507 -0.040177897 0.43700001
0.039277773 -0.040453721 0.44
0.047441989 -0.040729541 0.44299999
0.055588234 -0.040913422 0.44499999
1.2573451 -0.34119034 3.711
1.333479 -0.34376469 3.7390001
1.40799 -0.34569544 3.76
1.4871724 -0.34854555 3.7909999
1.5674601 -0.35139573 3.822
1.632372 -0.29025546 3.1570001
2.1384506 -0.35571691 3.869
2.2108381 -0.35626855 3.875
2.3016789 -0.35967034 3.9119999
2.3895955 -0.36242855 3.9419999
2.4748375 -0.36463514 3.9660001
2.5583675 -0.36647394 3.9860001
2.4889092 -0.34689063 3.773
2.5615821 -0.34762618 3.7809999
2.4433293 -0.3230781 3.5139999
2.4695959 -0.31838918 3.4630001
2.503547 -0.31489542 3.425
2.6561043 -0.31130975 3.3859999
2.8424213 -0.318665 3.4660001
2.9251499 -0.32096347 3.4909999
3.0079143 -0.32317007 3.5150001
3.1592426 -0.2858423 3.109
4.0219288 -0.29632351 3.223
2.4238315 -0.17606562 1.915
2.4476979 -0.17533009 1.9069999
2.3971019 -0.16935399 1.842
2.4075091 -0.16779099 1.825
2.4654424 -0.16953786 1.844
2.4834082 -0.16852652 1.8329999
2.5503979 -0.17082502 1.858
2.6196687 -0.17321546 1.8839999
2.6560676 -0.17339936 1.886
2.6996682 -0.17404294 1.893
2.6207821 -0.16687159 1.8150001
-0.30290076 -0.063001357 0.85000002
-0.2897808 -0.063446067 0.85600001
-0.27548483 -0.06366843 0.85900003
-0.26168767 -0.064039022 0.86400002
-0.2474272 -0.064335495 0.86799997
-0.23302415 -0.064631976 0.87199998
-0.21847849 -0.06492845 0.87599999
-0.20425341 -0.065373175 0.88200003
-0.18917313 -0.06559553 0.88499999
-0.19815561 -0.10309987 1.391
-0.17336124 -0.10309987 1.391
-0.1494213 -0.10369282 1.399
-0.12555209 -0.10458225 1.411
-0.10125509 -0.10547168 1.423
-0.01498368 -0.03127832 0.42199999
-0.007496953 -0.03142656 0.42399999
6.1217594e-05 -0.031648915 0.42699999
0.0077443053 -0.031945392 0.43099999
0.015462613 -0.032019511 0.43200001
0.023377424 -0.032315988 0.43599999
0.031291947 -0.032464225 0.43799999
0.039277773 -0.032612469 0.44
0.047334898 -0.032760706 0.442
0.056087904 -0.033279538 0.449
1.2610719 -0.27587181 3.7219999
1.3349056 -0.27742833 3.743
1.4091133 -0.2789107 3.763
1.4899185 -0.2815049 3.7980001
1.5682802 -0.28343198 3.8239999
1.647141 -0.28528494 3.849
1.7331337 -0.28817558 3.888
1.8117086 -0.28965798 3.908
1.6272014 -0.23325326 3.1470001
2.1351342 -0.28632262 3.8629999
2.213691 -0.28758267 3.8800001
2.3022676 -0.2900286 3.9130001
2.3889894 -0.29210392 3.941
2.4767094 -0.29417926 3.9690001
2.5609348 -0.29573578 3.99
2.4928672 -0.28009659 3.779
2.5730996 -0.2815049 3.7980001
2.473875 -0.25711966 3.4690001
2.5042779 -0.25393254 3.4260001
2.4732449 -0.24481586 3.303
2.7573745 -0.25474784 3.437
2.8506222 -0.25763848 3.4760001
2.9310155 -0.25926912 3.4979999
3.0147603 -0.26112208 3.523
3.0924077 -0.26238212 3.54
3.1501594 -0.26193738 3.5339999
3.1658735 -0.25808319 3.4820001
3.1741714 -0.25378427 3.424
3.180402 -0.24948536 3.3659999
3.2353396 -0.23191909 3.1289999
3.3142536 -0.23354973 3.151
3.409996 -0.23629214 3.188
3.490746 -0.23792277 3.21
3.592175 -0.24088754 3.25
3.6860454 -0.24325936 3.2820001
3.9328289 -0.25156072 3.3940001
3.9815605 -0.2508195 3.3840001
3.9976866 -0.24807709 3.3469999
4.006433 -0.24496411 3.3050001
4.0173717 -0.24207343 3.266
4.0294161 -0.23933104 3.2290001
2.4111745 -0.14119714 1.905
2.4348626 -0.1406042 1.897
2.4010057 -0.13675 1.845
2.4114666 -0.13548997 1.8279999
2.4707906 -0.13697237 1.848
2.4956019 -0.13652764 1.842
2.5352986 -0.13689823 1.847
2.611326 -0.13919593 1.878
2.6560676 -0.1397889 1.886
2.72106 -0.14141952 1.908
2.7579577 -0.14156774 1.91
-0.31767768 -0.047797177 0.84899998
-0.30325711 -0.047909774 0.85100001
-0.2897808 -0.048191268 0.85600001
-0.2751641 -0.048303861 0.85799998
-0.26138479 -0.048585352 0.86299998
-0.24771227 -0.048923146 0.86900002
-0.23329139 -0.049148336 0.87300003
-0.21872789 -0.04937353 0.87699997
-0.20425341 -0.049655024 0.88200003
-0.18724933 -0.04931723 0.87599999
-0.22246917 -0.078141913 1.388
-0.19772825 -0.078141913 1.388
-0.17398439 -0.0785923 1.396
-0.1494213 -0.078761198 1.399
-0.1251072 -0.079155281 1.406
-0.10097046 -0.079887159 1.419
-0.0075146346 -0.023926739 0.42500001
6.1360959e-05 -0.024095634 0.428
0.0077443053 -0.024264527 0.43099999
0.015498405 -0.024377124 0.433
0.023323806 -0.024489721 0.435
0.031291947 -0.024658615 0.43799999
0.039367042 -0.024827512 0.44100001
0.04754908 -0.024996405 0.44400001
0.056087904 -0.025277896 0.449
1.2597167 -0.20931673 3.7179999
1.3356189 -0.2108368 3.7449999
1.4143559 -0.21263833 3.777
1.4887416 -0.21365172 3.7950001
1.5691005 -0.21539694 3.826
1.6475689 -0.2167481 3.8499999
1.7304592 -0.21854965 3.882
1.8107815 -0.2199008 3.9059999
1.7234643 -0.20154759 3.5799999
1.6272014 -0.17717047 3.1470001
2.1351342 -0.21747997 3.8629999
2.2148318 -0.21854965 3.882
2.3016789 -0.2202386 3.9119999
2.3883829 -0.22181495 3.9400001
2.4798295 -0.22372909 3.974
2.4908884 -0.21258204 3.776
2.583262 -0.21466507 3.813
2.4660301 -0.1946792 3.4579999
2.5072019 -0.19310285 3.4300001
2.4672546 -0.1855026 3.2950001
2.5612519 -0.18809232 3.3410001
2.7637928 -0.19394733 3.4449999
2.859643 -0.19631186 3.487
2.9268258 -0.19664966 3.493
3.0130484 -0.19822599 3.5209999
3.083672 -0.19873267 3.53
3.1457024 -0.19867638 3.529
3.1622365 -0.19580516 3.4779999
3.1639743 -0.19214579 3.4130001
3.1775672 -0.18933088 3.3629999
3.1602585 -0.17508742 3.1099999
3.2332718 -0.17604451 3.1270001
3.3216162 -0.17778975 3.158
3.4025087 -0.17908461 3.181
3.5016205 -0.18128024 3.22
3.5988069 -0.18330698 3.256
3.6871686 -0.18482701 3.283
3.7890432 -0.18696636 3.3210001
3.874891 -0.18826123 3.3440001
3.9509695 -0.18904938 3.358
4.0036588 -0.1887116 3.352
4.0100694 -0.18623449 3.3080001
4.0099912 -0.18353216 3.26
4.0169373 -0.18122393 3.2190001
4.0274839 -0.1791409 3.1819999
2.4425638 -0.10713549 1.903
2.449156 -0.10595322 1.882
2.4259775 -0.1035324 1.839
2.4721274 -0.10409538 1.849
2.4969568 -0.1037576 1.8430001
2.5435345 -0.10432058 1.853
2.6182785 -0.10600953 1.883
2.6560676 -0.10617843 1.886
2.7253385 -0.10758588 1.911
2.7897251 -0.10876814 1.932
-0.33006698 -0.032397784 0.84200001
-0.316181 -0.032513216 0.84500003
-0.30325711 -0.03274408 0.85100001
-0.2897808 -0.032936465 0.85600001
-0.27548483 -0.033051897 0.85900003
-0.26138479 -0.033205803 0.86299998
-0.24771227 -0.033436667 0.86900002
-0.23329139 -0.033590578 0.87300003
-0.21847849 -0.033706009 0.87599999
-0.20425341 -0.033936869 0.88200003
-0.22118692 -0.053098504 1.38
-0.19744334 -0.053329371 1.386
-0.17373513 -0.053637188 1.3940001
-0.14984852 -0.05398348 1.403
-0.12484024 -0.05398348 1.403
-0.100757 -0.054483682 1.416
-0.076796949 -0.055407137 1.4400001
-0.014948174 -0.016198892 0.421
-0.0075146346 -0.016352801 0.42500001
6.1360959e-05 -0.016468232 0.428
0.0077263378 -0.016545186 0.43000001
0.015462613 -0.016622141 0.43200001
0.023323806 -0.016737573 0.435
0.031291947 -0.016853005 0.43799999
0.039367042 -0.016968435 0.44100001
0.04754908 -0.017083867 0.44400001
0.05633774 -0.017353207 0.45100001
0.06566143 -0.017699502 0.46000001
1.1095874 -0.14082646 3.6600001
1.188308 -0.14244249 3.7019999
1.2641213 -0.14355835 3.7309999
1.3338356 -0.14390464 3.74
1.4147304 -0.14536677 3.7780001
1.490703 -0.14621328 3.8
1.5691005 -0.14721368 3.826
1.647141 -0.14809865 3.849
1.7335795 -0.14963774 3.8889999
1.811245 -0.15033035 3.9070001
1.623582 -0.12081834 3.1400001
2.1340289 -0.14856039 3.8610001
2.2159731 -0.14944535 3.8840001
2.3028557 -0.15059967 3.914
2.3895955 -0.15167703 3.9419999
2.4773335 -0.1527544 3.97
2.748569 -0.15610191 4.0570002
2.7549679 -0.13213062 3.434
2.8694842 -0.13463165 3.4990001
2.9251499 -0.13432382 3.4909999
3.0147603 -0.13555509 3.523
3.0827985 -0.13578597 3.529
3.1358972 -0.1353627 3.5179999
3.1613274 -0.13378514 3.477
3.1686094 -0.131515 3.418
3.1592426 -0.11962555 3.109
3.2405097 -0.12058748 3.1340001
3.3226678 -0.1215494 3.1589999
3.4132051 -0.12278067 3.191
3.5114079 -0.12424281 3.2290001
3.6054385 -0.12551256 3.2620001
3.7017689 -0.12682077 3.296
3.7970297 -0.12805204 3.3280001
3.8783669 -0.12878311 3.3469999
3.9556758 -0.12936027 3.362
3.9976866 -0.12878311 3.3469999
4.0052204 -0.1271286 3.3039999
4.0112214 -0.12547408 3.2609999
4.00945 -0.12362718 3.2130001
4.0148268 -0.1220496 3.1719999
2.4451308 -0.073299028 1.905
2.4556627 -0.072606437 1.887
2.4497228 -0.071452118 1.857
2.4667795 -0.070990391 1.845
2.5050857 -0.071144305 1.849
2.5682425 -0.071990803 1.8710001
2.6057639 -0.072106227 1.874
2.6687424 -0.07291425 1.895
2.7324691 -0.073722273 1.916
2.8763623 -0.076646537 1.992
-0.34384602 -0.017330507 0.83899999
-0.33006698 -0.017392475 0.84200001
-0.31730354 -0.017516412 0.84799999
-0.30290076 -0.017557725 0.85000002
-0.2897808 -0.017681662 0.85600001
-0.27548483 -0.01774363 0.85900003
-0.26138479 -0.017826254 0.86299998
-0.2474272 -0.017929533 0.86799997
-0.23329139 -0.018032815 0.87300003
-0.2189773 -0.018136097 0.87800002
-0.20425341 -0.018218722 0.88200003
-0.22182801 -0.028588105 1.3839999
-0.19701597 -0.02856745 1.383
-0.17298734 -0.028670732 1.388
-0.1495281 -0.028918603 1.4
-0.12537414 -0.02910451 1.409
-0.10104162 -0.029331727 1.42
-0.076583624 -0.029662225 1.436
-0.015019188 -0.0087375501 0.42300001
-0.0075146346 -0.0087788627 0.42500001
6.1360959e-05 -0.008840831 0.428
0.0077443053 -0.0089027993 0.43099999
0.015498405 -0.0089441109 0.433
0.023377424 -0.0090060793 0.43599999
0.031291947 -0.0090473918 0.43799999
0.039367042 -0.0091093611 0.44100001
0.047763266 -0.009212641 0.44600001
0.05683741 -0.009398547 0.45500001
1.188308 -0.076469049 3.7019999
1.2624273 -0.076964803 3.7260001
1.3370454 -0.077439897 3.7490001
1.4124836 -0.077914983 3.7720001
1.4910954 -0.078514017 3.8010001
1.5703309 -0.079092383 3.829
1.647997 -0.079546817 3.8510001
1.7286762 -0.080104537 3.878
1.8163445 -0.080930777 3.918
1.9015876 -0.081591785 3.95
1.9819806 -0.082004897 3.97
2.0672228 -0.082583264 3.9979999
2.1367922 -0.079856656 3.8659999
2.2193961 -0.080352411 3.8900001
2.3040323 -0.080889471 3.9159999
2.3914139 -0.081488498 3.9449999
2.4779575 -0.082025558 3.971
2.7533114 -0.083946586 4.0640001
2.3793607 -0.070685335 3.4219999
2.42241 -0.068454467 3.3139999
2.453028 -0.067669533 3.276
2.7517588 -0.070850581 3.4300001
2.8727646 -0.072358482 3.503
2.925988 -0.072131261 3.4920001
3.0113373 -0.072688982 3.5190001
3.0810511 -0.072854228 3.527
3.1385713 -0.072730288 3.5209999
3.154963 -0.071676828 3.47
3.1630471 -0.070478767 3.4119999
3.1572104 -0.064178646 3.1070001
3.2374077 -0.064674392 3.131
3.3310826 -0.06541802 3.1670001
3.416414 -0.065975733 3.194
3.5081456 -0.066636726 3.2260001
3.6131756 -0.06752494 3.2690001
3.7006459 -0.068062007 3.2950001
3.8015935 -0.068826281 3.332
3.8876371 -0.069301367 3.355
3.9568522 -0.069466613 3.3629999
3.9976866 -0.06913612 3.3469999
4.0015841 -0.068185948 3.3010001
4.0063009 -0.067277066 3.257
4.0119452 -0.066409513 3.2149999
4.0148268 -0.0655213 3.1719999
2.452832 -0.039473899 1.911
2.5142238 -0.039907675 1.932
2.5433846 -0.039825048 1.928
2.4948566 -0.038544372 1.8660001
2.5064406 -0.038213871 1.85
2.5449071 -0.038296495 1.854
2.6043735 -0.038688965 1.873
3.0205479 -0.043749716 2.118
2.9731073 -0.042531006 2.059
-0.34384602 -0.0023786612 0.83899999
-0.33124301 -0.002395672 0.84500003
-0.31730354 -0.0024041773 0.84799999
-0.30325711 -0.0024126826 0.85100001
-0.28944227 -0.0024240231 0.85500002
-0.27612624 -0.0024410337 0.861
-0.26199055 -0.0024523742 0.86500001
-0.24771227 -0.0024637147 0.86900002
-0.23329139 -0.0024750552 0.87300003
-0.2189773 -0.0024892308 0.87800002
-0.20425341 -0.0025005713 0.88200003
-0.2221486 -0.0039294693 1.386
-0.19715843 -0.0039237984 1.3839999
-0.17336124 -0.0039436445 1.391
-0.14931449 -0.0039634905 1.398
-0.12537414 -0.0039946768 1.409
-0.10104162 -0.004025863 1.42
-0.076476961 -0.0040655541 1.434
-0.015019188 -0.0011992535 0.42300001
-0.0075146346 -0.0012049237 0.42500001
6.1360959e-05 -0.0012134291 0.428
0.0077263378 -0.0012190994 0.43000001
0.015498405 -0.0012276046 0.433
0.023323806 -0.0012332748 0.435
0.031291947 -0.0012417802 0.43799999
0.039367042 -0.0012502857 0.44100001
0.047870357 -0.0012672963 0.447
0.056462657 -0.0012814718 0.45199999
1.1147413 -0.010424716 3.677
1.1870241 -0.010484254 3.698
1.2627661 -0.010566472 3.727
1.3391854 -0.010645856 3.7550001
1.4158537 -0.010719568 3.7809999
1.4918799 -0.010781941 3.803
1.5682802 -0.010841479 3.8239999
1.6514205 -0.010940707 3.859
1.7344711 -0.011031431 3.891
1.8140266 -0.011093804 3.9130001
1.902069 -0.011201538 3.951
1.9874722 -0.011286591 3.9809999
2.0641208 -0.011317778 3.9920001
2.1160216 -0.011215714 3.9560001
2.1362395 -0.010957718 3.865
2.2199667 -0.011031431 3.891
2.3046207 -0.011105144 3.9170001
2.3883829 -0.011170352 3.9400001
2.4773335 -0.011255405 3.97
2.7553437 -0.011530411 4.0669999
2.3835328 -0.009718773 3.428
2.4063289 -0.009333198 3.2920001
2.4417958 -0.0092453081 3.2609999
2.7549679 -0.0097357845 3.434
2.8703043 -0.0099229012 3.5
2.9310155 -0.0099172303 3.4979999
3.0198946 -0.010005119 3.529
3.0793042 -0.0099937795 3.5250001
3.130549 -0.0099569233 3.5120001
3.1504169 -0.0098236725 3.4649999
3.159339 -0.0096620712 3.408
3.1521294 -0.0087945256 3.102
3.2394755 -0.0088824136 3.1329999
3.3258233 -0.0089646317 3.1619999
3.4121356 -0.0090440158 3.1900001
3.5146704 -0.009163091 3.2320001
3.6054385 -0.0092481449 3.2620001
3.7096307 -0.0093643833 3.303
3.8038752 -0.0094522722 3.3340001
3.884161 -0.009503304 3.352
3.9650884 -0.0095543358 3.3699999
3.9857426 -0.009460778 3.3369999
3.9967346 -0.0093473727 3.2969999
4.0013809 -0.0092226276 3.253
4.0044584 -0.0090978835 3.2090001
4.0097642 -0.0089816432 3.168
4.0174594 -0.0088739097 3.1300001
4.0163713 -0.0085166851 3.0039999
4.0004182 -0.0081566256 2.8770001
3.9939594 -0.0080403853 2.836
3.9846132 -0.0079213101 2.7939999
2.9644437 -0.0058204904 2.053
-0.34425583 0.01258817 0.83999997
-0.33085099 0.012648114 0.84399998
-0.31692934 0.012693072 0.847
-0.30325711 0.012753015 0.85100001
-0.2897808 0.012827945 0.85600001
-0.27580553 0.012887889 0.86000001
-0.26168767 0.012947832 0.86400002
-0.24771227 0.013022762 0.86900002
-0.23329139 0.013082705 0.87300003
-0.21872789 0.013142649 0.87699997
-0.20425341 0.013217579 0.88200003
-0.22295 0.020845411 1.391
-0.1978707 0.02081544 1.3890001
-0.17361049 0.020875381 1.393
-0.14963493 0.02099527 1.401
-0.12555209 0.021145128 1.411
-0.10097046 0.021265017 1.419
-0.076583624 0.021519776 1.436
-0.01498368 0.006324057 0.42199999
-0.0075323158 0.0063840006 0.426
6.1360959e-05 0.0064139725 0.428
0.0077443053 0.0064589302 0.43099999
0.015498405 0.006488902 0.433
0.023431042 0.0065488461 0.43700001
0.03136339 0.0065788175 0.43900001
0.039367042 0.0066087893 0.44100001
0.047977451 0.0067136912 0.44800001
0.057087243 0.0068485639 0.45699999
1.1876662 0.055447891 3.7
1.2627661 0.055852514 3.727
1.3388287 0.056257129 3.7539999
1.4154792 0.056646764 3.78
1.4946259 0.057096343 3.8099999
1.5707409 0.057396058 3.8299999
1.6505647 0.057800684 3.8570001
1.7335795 0.05828023 3.8889999
1.8144902 0.058654878 3.914
1.9001434 0.059149414 3.947
1.9874722 0.059658933 3.9809999
2.0630865 0.059793808 3.99
2.1079981 0.059059501 3.941
2.1340289 0.057860624 3.8610001
2.2193961 0.058295216 3.8900001
2.3052089 0.058714822 3.918
2.3932326 0.059164397 3.948
2.4779575 0.059509076 3.971
2.5622187 0.059823781 3.9920001
2.6604214 0.060438201 4.033
2.7499239 0.060827836 4.059
2.852869 0.061487217 4.1030002
2.9473984 0.061936792 4.1329999
2.4099836 0.049408566 3.2969999
2.4410472 0.048854087 3.26
2.7549679 0.051461637 3.434
2.8645637 0.052345809 3.493
2.925988 0.052330822 3.4920001
3.0130484 0.05276541 3.5209999
3.0976491 0.053140059 3.546
3.130549 0.05263054 3.5120001
3.14678 0.051866259 3.461
3.1547039 0.050997075 3.4030001
3.42818 0.048029862 3.2049999
3.5222826 0.048539385 3.2390001
3.615386 0.049018934 3.2709999
