ply
format ascii 1.0
comment PCL generated
element vertex 118
property float x
property float y
property float z
element face 0
element camera 1
property float view_px
property float view_py
property float view_pz
property float x_axisx
property float x_axisy
property float x_axisz
property float y_axisx
property float y_axisy
property float y_axisz
property float z_axisx
property float z_axisy
property float z_axisz
property float focal
property float scalex
property float scaley
property float centerx
property float centery
property int viewportx
property int viewporty
property float k1
property float k2
end_header
0.38026658 -0.22677314 2.187381
0.39406669 -0.22343996 2.1871109
0.3893961 -0.24245404 2.2149999
0.4340871 -0.24832535 2.2063529
0.32635775 -0.21009792 2.2190001
0.34689608 -0.21628177 2.2141743
0.3717905 -0.22107697 2.1980002
0.40480468 -0.22717869 2.2033846
0.43324757 -0.23461877 2.2069585
0.2990399 -0.20281039 2.2190001
0.31791219 -0.19408262 2.2160256
0.34196067 -0.20328814 2.2146366
0.37204763 -0.20634945 2.2097371
0.39678764 -0.20978232 2.2156668
0.29175517 -0.17001642 2.2190001
0.32817894 -0.15179755 2.2190001
0.34570038 -0.15972763 2.2180252
0.37116531 -0.15819366 2.2132668
0.32482475 -0.13969244 2.2147501
0.33182132 -0.14268811 2.2190001
0.40991843 -0.2847425 2.2462308
0.42677063 -0.27698103 2.2458889
0.41152373 -0.24852957 2.2331111
0.43062505 -0.25941607 2.2348232
0.46402255 -0.2600337 2.2358334
0.34552979 -0.23020911 2.2267838
0.36188209 -0.23255293 2.2246668
0.41382778 -0.21633217 2.229111
0.43210548 -0.22324064 2.2388625
0.28565389 -0.1945347 2.2300141
0.31097093 -0.19400911 2.2226362
0.34727633 -0.18952765 2.2234747
0.37578893 -0.192091 2.2278299
0.2366793 -0.1724377 2.2462728
0.25550017 -0.16595896 2.2409394
0.28519094 -0.16489533 2.2271855
0.31581545 -0.16475396 2.2244751
0.34480393 -0.17118551 2.2214234
0.37569082 -0.17089571 2.2239997
0.23290095 -0.13844916 2.2439997
0.25594398 -0.14042248 2.237957
0.28442609 -0.14146192 2.2298181
0.31467757 -0.14366001 2.2246664
0.34236768 -0.14638247 2.2244167
0.41178447 -0.28291443 2.252389
0.42605576 -0.27990311 2.2528889
0.46065235 -0.27089912 2.2704999
0.41145596 -0.26155618 2.2562499
0.42343587 -0.26857254 2.2509999
0.46582213 -0.26682559 2.2623332
0.1789889 -0.17369409 2.267
0.19764434 -0.1574429 2.269094
0.22380415 -0.16330439 2.2569125
0.24048555 -0.15949604 2.2505
0.17603861 -0.13987418 2.277
0.19614182 -0.13816053 2.2650001
0.21858399 -0.13776715 2.2558334
0.25891671 -0.12898026 2.2662499
0.42635715 -0.39990175 2.3061762
0.44072852 -0.37551883 2.3076873
0.45140257 -0.36269858 2.309
0.44722471 -0.35859615 2.3069999
0.45140257 -0.35890701 2.309
0.14819402 -0.17691207 2.309
0.16502015 -0.16530485 2.2991934
0.18768981 -0.16547039 2.2850626
0.14819402 -0.14657958 2.309
0.16332498 -0.14345199 2.2923791
0.43638688 -0.40662178 2.3192499
0.4534778 -0.40466365 2.3307858
0.43978551 -0.37876621 2.3194165
0.46002343 -0.37352866 2.3250434
0.44611281 -0.35634416 2.3169999
0.46488509 -0.34415063 2.3243589
0.14436896 -0.19209655 2.3186669
0.13785641 -0.16375864 2.3244529
0.15204994 -0.15991926 2.3099999
0.14016923 -0.14576882 2.3228889
0.41923216 -0.40232214 2.3410001
0.4255597 -0.39791241 2.3547499
0.46558845 -0.3946403 2.3486667
0.43650022 -0.38285363 2.3512502
0.47422862 -0.37250426 2.3469169
0.12442434 -0.18287659 2.3615
0.11529858 -0.16786274 2.357923
0.12365493 -0.17083089 2.3468888
0.42986473 -0.39796668 2.3840001
0.43720028 -0.38882926 2.3759999
0.11454471 -0.21129505 2.398
0.10719547 -0.1943377 2.3883777
0.12286576 -0.19158192 2.3813334
0.10634823 -0.17721151 2.3784287
0.43702486 -0.39393714 2.4072499
0.12583619 -0.24164802 2.4260001
0.10918559 -0.22100654 2.4133213
0.12402716 -0.23173985 2.414
0.087770738 -0.20723285 2.4194999
0.09382724 -0.20534509 2.4051666
0.11745793 -0.32165468 2.4590001
0.12607919 -0.31241632 2.4449477
0.11733851 -0.27493888 2.4565001
0.12570505 -0.28721422 2.4454348
0.11718087 -0.25565553 2.4531999
0.1246386 -0.25354168 2.4472144
0.10308199 -0.22969294 2.4422307
0.17249508 -0.36520812 2.4668334
0.16709004 -0.3524245 2.4766665
0.11438371 -0.30985224 2.4665384
0.14305864 -0.3044076 2.483
0.11010905 -0.28519821 2.4755311
0.13400979 -0.28487512 2.4747777
0.10748396 -0.25492394 2.4776363
0.1316516 -0.26050308 2.4726665
0.098860219 -0.23617016 2.4698575
0.16639249 -0.34136325 2.503
0.14683639 -0.3066138 2.5010002
0.16560937 -0.32911065 2.516
0.13944162 -0.28453523 2.5074446
0 0 0 1 0 0 0 1 0 0 0 1 0 0 0 0 0 118 1 0 0
