ply
format ascii 1.0
comment PCL generated
element vertex 1515
property float x
property float y
property float z
element face 0
element camera 0
property float view_px
property float view_py
property float view_pz
property float x_axisx
property float x_axisy
property float x_axisz
property float y_axisx
property float y_axisy
property float y_axisz
property float z_axisx
property float z_axisy
property float z_axisz
property float focal
property float scalex
property float scaley
property float centerx
property float centery
property int viewportx
property int viewporty
property float k1
property float k2
end_header
-0.51442158 0.29755434 3.1059999
-0.51096308 0.29851234 3.1159999
-0.50779641 0.29966196 3.128
-0.50362611 0.30023676 3.1340001
-0.39824691 0.32782713 3.4219999
-0.39194146 0.3272523 3.4159999
-0.38644737 0.32734811 3.4170001
-0.38039273 0.32696494 3.4130001
-0.37424135 0.3264859 3.408
-0.36832279 0.32619852 3.405
-0.36273366 0.32619852 3.405
-0.35766897 0.32667753 3.4100001
-0.35289761 0.3274439 3.418
-0.29008356 0.3326171 3.4719999
-0.28446639 0.33271292 3.473
-0.27916694 0.3331919 3.4779999
-0.27408701 0.33395833 3.4860001
-0.26898077 0.33472469 3.494
-0.14329629 0.33587432 3.506
-0.1374629 0.33568269 3.5039999
-0.13152333 0.33520371 3.4990001
-0.64880282 0.32964638 3.5009999
-0.64250505 0.32936391 3.4979999
-0.63658124 0.32926974 3.497
-0.62993914 0.32879898 3.4920001
-0.62313467 0.32823402 3.4860001
-0.51375914 0.29207742 3.102
-0.50997913 0.29283071 3.1099999
-0.50682235 0.29396057 3.122
-0.50314403 0.294808 3.131
-0.40162188 0.32493848 3.451
-0.39503935 0.32418525 3.4430001
-0.38893545 0.32380858 3.4389999
-0.38239887 0.32305536 3.431
-0.37588859 0.32230207 3.4230001
-0.36972904 0.32183129 3.418
-0.36422509 0.32192543 3.4189999
-0.35945207 0.32267871 3.427
-0.35475606 0.32352614 3.4360001
-0.29075199 0.32766908 3.48
-0.28503972 0.32766908 3.48
-0.27956828 0.32795155 3.483
-0.27440149 0.32861063 3.49
-0.26967362 0.3298347 3.503
-0.1435824 0.33077627 3.513
-0.13765907 0.33039966 3.5090001
-0.13171127 0.32992885 3.5039999
-0.64991468 0.32445255 3.507
-0.6432398 0.32398999 3.5020001
-0.63694531 0.32371244 3.4990001
-0.63011956 0.32315734 3.493
-0.62295586 0.32241723 3.4849999
-0.61688125 0.32223219 3.483
-0.51375914 0.2869837 3.102
-0.5093233 0.28735375 3.1059999
-0.50584829 0.28827891 3.1159999
-0.50266194 0.2893891 3.128
-0.39756355 0.32056689 3.4649999
-0.39063188 0.31954923 3.454
-0.38384777 0.31862408 3.444
-0.37698668 0.31760642 3.4330001
-0.37070256 0.31705132 3.427
-0.36518383 0.31714383 3.428
-0.36029118 0.31779143 3.4349999
-0.35547879 0.31853157 3.4430001
-0.35135135 0.31991929 3.4579999
-0.29108617 0.32232469 3.484
-0.28520355 0.32213968 3.4820001
-0.27980909 0.32250974 3.4860001
-0.27471599 0.32324985 3.494
-0.14370501 0.3252852 3.516
-0.1378552 0.32510015 3.5139999
-0.13178645 0.32436004 3.506
-0.65010005 0.31878465 3.5079999
-0.64379084 0.31851205 3.5050001
-0.63749141 0.31823942 3.5020001
-0.63066071 0.31769419 3.4960001
-0.62402844 0.31723982 3.4909999
-0.61794394 0.31705806 3.4890001
-0.61256784 0.31723982 3.4909999
-0.50915927 0.28216258 3.105
-0.50519896 0.28279871 3.112
-0.50201917 0.28388917 3.1240001
-0.39951408 0.31642196 3.4820001
-0.39210212 0.31505886 3.467
-0.3847394 0.31369573 3.4519999
-0.37764555 0.31251436 3.4389999
-0.37113523 0.3117874 3.431
-0.36550343 0.3117874 3.431
-0.36060584 0.3124235 3.438
-0.355995 0.31333223 3.448
-0.35226578 0.31505886 3.467
-0.29150394 0.31705806 3.4890001
-0.28528544 0.31651282 3.483
-0.2797288 0.31669456 3.4849999
-0.27471599 0.31751242 3.494
-0.16649225 0.28016335 3.0829999
-0.14922126 0.31896642 3.51
-0.14362326 0.31932989 3.5139999
-0.1378552 0.31932989 3.5139999
-0.13182405 0.31869379 3.507
-0.64898813 0.31248885 3.5020001
-0.64287245 0.3123104 3.5
-0.63658124 0.31204268 3.497
-0.63011956 0.31168577 3.493
-0.62384969 0.31141806 3.49
-0.61847526 0.31159654 3.4920001
-0.61414707 0.3123104 3.5
-0.60683751 0.31150728 3.4909999
-0.5076834 0.27626085 3.096
-0.50341326 0.27670702 3.1010001
-0.49960867 0.27742088 3.109
-0.40134987 0.31213191 3.4979999
-0.39345929 0.31043655 3.4790001
-0.38585395 0.30891961 3.4619999
-0.37819463 0.30731341 3.444
-0.37145978 0.30642113 3.434
-0.36571652 0.3063319 3.4330001
-0.36050096 0.30668879 3.437
-0.3562015 0.30784881 3.45
-0.35267222 0.30972266 3.471
-0.29183814 0.31168577 3.493
-0.28569499 0.31123963 3.4879999
-0.27980909 0.31106117 3.4860001
-0.27471599 0.311775 3.494
-0.17133027 0.27474391 3.079
-0.16643825 0.27501163 3.082
-0.16174585 0.27563623 3.089
-0.14939131 0.31355962 3.5139999
-0.14350064 0.31329194 3.5109999
-0.64030093 0.30533686 3.4860001
-0.63476086 0.30542445 3.487
-0.62885672 0.30533686 3.4860001
-0.62313467 0.30533686 3.4860001
-0.6177668 0.30551204 3.4879999
-0.61274332 0.30586243 3.4920001
-0.60631603 0.30551204 3.4879999
-0.50341326 0.27161494 3.1010001
-0.49928728 0.27214047 3.1070001
-0.46084094 0.30025667 3.428
-0.45640922 0.30104497 3.437
-0.3951557 0.30603758 3.494
-0.38730285 0.30437335 3.4749999
-0.37918293 0.30244642 3.4530001
-0.3720006 0.30122015 3.4389999
-0.36592954 0.30086979 3.4349999
-0.36060584 0.30113256 3.438
-0.35630473 0.30227122 3.451
-0.35287541 0.30419821 3.473
-0.29208878 0.30621275 3.4960001
-0.28577691 0.30559963 3.4890001
-0.2799696 0.30551204 3.4879999
-0.17144157 0.26986313 3.0810001
-0.16649225 0.27003831 3.0829999
-0.16190292 0.27082661 3.092
-0.63919884 0.29909688 3.48
-0.63348663 0.29909688 3.48
-0.62795478 0.29918283 3.4809999
-0.62277716 0.29944068 3.484
-0.61758965 0.2996985 3.487
-0.61239237 0.29995635 3.49
-0.6064899 0.29987043 3.4890001
-0.50292617 0.266265 3.098
-0.49864447 0.26669472 3.1029999
-0.46070656 0.29454169 3.427
-0.45747155 0.29608873 3.4449999
-0.38897467 0.29995635 3.49
-0.3805007 0.29780766 3.4649999
-0.37286597 0.29626063 3.447
-0.3664622 0.29565901 3.4400001
-0.36092052 0.29574496 3.441
-0.3566145 0.29686224 3.454
-0.35318023 0.29875311 3.4760001
-0.28626832 0.3003861 3.4949999
-0.28037095 0.3002142 3.493
-0.17638429 0.26463199 3.079
-0.17144157 0.26480389 3.0810001
-0.16638426 0.26480389 3.0810001
-0.16179819 0.26557741 3.0899999
-0.63919884 0.29338247 3.48
-0.63421476 0.29371965 3.484
-0.62867635 0.29380399 3.4849999
-0.62331337 0.29397258 3.487
-0.61794394 0.2941412 3.4890001
-0.61239237 0.29422548 3.49
-0.60631603 0.29405689 3.4879999
-0.60007405 0.29380399 3.4849999
-0.5024392 0.26092491 3.095
-0.49751958 0.26100922 3.096
-0.49323297 0.26143074 3.1010001
-0.45800272 0.29076898 3.4489999
-0.45430863 0.29203355 3.464
-0.38170865 0.29304522 3.4760001
-0.37383956 0.29135913 3.4560001
-0.36752751 0.29085329 3.45
-0.3611303 0.29026318 3.4430001
-0.35713074 0.29161203 3.4590001
-0.28675979 0.29515284 3.5009999
-0.18084903 0.25873297 3.069
-0.17626971 0.2594074 3.0769999
-0.17138591 0.25966033 3.0799999
-0.16616823 0.2594074 3.0769999
-0.63828045 0.28725469 3.4749999
-0.61169052 0.28816402 3.4860001
-0.49655539 0.25542936 3.0899999
-0.49211955 0.25576004 3.0940001
-0.45879945 0.28560141 3.4549999
-0.45430863 0.28634542 3.464
-0.38335583 0.28857732 3.4909999
-0.37513757 0.28667605 3.4679999
-0.36869931 0.28609741 3.461
-0.3628085 0.28593209 3.4590001
-0.17121898 0.25435475 3.0769999
-0.49180147 0.2505174 3.092
-0.33149797 0.28260174 3.4879999
-0.32437167 0.28138644 3.473
-0.31738633 0.28025213 3.4590001
-0.31161839 0.2801711 3.4579999
-0.48688349 0.24551943 3.0929999
-0.48289686 0.24607508 3.0999999
-0.47950387 0.24694829 3.1110001
-0.42778218 0.23805782 2.9990001
-0.41414776 0.27473095 3.461
-0.40846673 0.27473095 3.461
-0.33857691 0.27798548 3.5020001
-0.3310228 0.27647728 3.483
-0.32399806 0.27536598 3.4690001
-0.31747806 0.27465156 3.46
-0.3114382 0.27433404 3.4560001
-0.4862538 0.24012956 3.089
-0.48227382 0.24067371 3.096
-0.47888738 0.24152882 3.1070001
-0.4757697 0.24253938 3.1199999
-0.43948618 0.23678687 3.046
-0.42963654 0.23414379 3.0120001
-0.42673934 0.26982507 3.471
-0.41970754 0.26896998 3.46
-0.41295114 0.26827034 3.451
-0.40681446 0.26795939 3.447
-0.40255293 0.26889223 3.4590001
-0.33848023 0.27215716 3.5009999
-0.33121288 0.27091339 3.4849999
-0.32418483 0.26982507 3.471
-0.31766158 0.26912543 3.4619999
-0.31170854 0.26889223 3.4590001
-0.48656869 0.23520936 3.0910001
-0.48180649 0.23536155 3.0929999
-0.47827077 0.23612247 3.1029999
-0.4748548 0.23695956 3.1140001
-0.42328247 0.2284369 3.0020001
-0.44154239 0.26617998 3.4979999
-0.43318433 0.26458201 3.477
-0.42575577 0.26351666 3.4630001
-0.41897973 0.26283181 3.454
-0.4125922 0.26237524 3.448
-0.4064604 0.26207083 3.444
-0.40103999 0.26222306 3.4460001
-0.3973341 0.26351666 3.4630001
-0.33790013 0.26595169 3.4949999
-0.33121288 0.26519075 3.4849999
-0.32446504 0.26435372 3.474
-0.31812036 0.26382104 3.467
-0.31188875 0.26336446 3.461
-0.30594227 0.26313618 3.4579999
-0.17020589 0.26389715 3.4679999
-0.14726566 0.26359275 3.464
-0.14157967 0.26359275 3.464
-0.1358937 0.26359275 3.464
-0.13013254 0.26344058 3.4619999
-0.44078505 0.25998929 3.4920001
-0.43281057 0.25864911 3.474
-0.4263705 0.2582024 3.4679999
-0.41970754 0.2576068 3.46
-0.41283152 0.25686225 3.45
-0.40681446 0.25663891 3.447
-0.40127274 0.25671333 3.448
-0.39641619 0.25723451 3.4549999
-0.39187592 0.25797904 3.4649999
-0.3377068 0.26006374 3.493
-0.33130792 0.25954255 3.4860001
-0.32446504 0.25864911 3.474
-0.31812036 0.25812796 3.467
-0.31197888 0.25775567 3.4619999
-0.30585381 0.25738341 3.457
-0.30078715 0.25790459 3.464
-0.17569555 0.25790459 3.464
-0.17010774 0.25805348 3.4660001
-0.16437103 0.25797904 3.4649999
-0.15859184 0.25783014 3.4630001
-0.15277502 0.2576068 3.46
-0.14713812 0.25768125 3.461
-0.14149792 0.25775567 3.4619999
-0.13581523 0.25775567 3.4619999
-0.13020772 0.25790459 3.464
-0.44028014 0.25396389 3.4879999
-0.43256137 0.25279889 3.4719999
-0.42587873 0.25221643 3.464
-0.41958627 0.25185236 3.4590001
-0.41307083 0.25134268 3.4519999
-0.40681446 0.25097865 3.447
-0.40127274 0.25105146 3.448
-0.39607197 0.25134268 3.4519999
-0.39142355 0.25199801 3.461
-0.33799684 0.25454637 3.4960001
-0.33121288 0.25374544 3.4849999
-0.32446504 0.25294453 3.474
-0.31821209 0.25250766 3.4679999
-0.312069 0.25214362 3.4630001
-0.30594227 0.25177956 3.4579999
-0.30061349 0.25207078 3.4619999
-0.29620865 0.25316295 3.477
-0.18138154 0.25221643 3.464
-0.17574628 0.25228924 3.4649999
-0.17000958 0.25221643 3.464
-0.16422872 0.25207078 3.4619999
-0.15845443 0.2519252 3.46
-0.15273087 0.25185236 3.4590001
-0.14705309 0.25185236 3.4590001
-0.14153881 0.25214362 3.4630001
-0.13581523 0.25207078 3.4619999
-0.13020772 0.25221643 3.464
-0.44078505 0.24852099 3.4920001
-0.43318433 0.24745347 3.477
-0.4263705 0.24681294 3.4679999
-0.42007145 0.24645711 3.4630001
-0.41366914 0.24603008 3.457
-0.40716851 0.24553192 3.45
-0.40150553 0.24553192 3.45
-0.39618674 0.24574542 3.4530001
-0.39142355 0.24631476 3.461
-0.33790013 0.24873449 3.4949999
-0.33111784 0.24795164 3.484
-0.32427824 0.2470976 3.4719999
-0.3180286 0.24667062 3.4660001
-0.31215909 0.24652827 3.464
-0.30620769 0.24631476 3.461
-0.30052665 0.24631476 3.461
-0.18138154 0.24652827 3.464
-0.17559412 0.24638593 3.4619999
-0.16986234 0.24631476 3.461
-0.16413385 0.24624358 3.46
-0.15836285 0.24610125 3.4579999
-0.15264255 0.24603008 3.457
-0.14705309 0.24617243 3.4590001
-0.14141619 0.24624358 3.46
-0.13581523 0.24638593 3.4619999
-0.13013254 0.24638593 3.4619999
-0.43368265 0.24202205 3.4809999
-0.42710817 0.24153537 3.474
-0.4204354 0.24097916 3.4660001
-0.41414776 0.24063151 3.461
-0.40811267 0.24042293 3.4579999
-0.40197104 0.24014485 3.454
-0.39687514 0.24049248 3.4590001
-0.33751342 0.24271731 3.4909999
-0.33073768 0.24195252 3.48
-0.32418483 0.24132679 3.471
-0.31784511 0.24084011 3.464
-0.31197888 0.24070103 3.4619999
-0.30620769 0.24063151 3.461
-0.30070031 0.24077056 3.4630001
-0.18132919 0.24077056 3.4630001
-0.17559412 0.24070103 3.4619999
-0.16971511 0.24042293 3.4579999
-0.16399154 0.24035341 3.457
-0.15827127 0.24028391 3.4560001
-0.15251009 0.24014485 3.454
-0.14688304 0.24021435 3.4549999
-0.14137532 0.24049248 3.4590001
-0.13561909 0.24035341 3.457
-0.13009496 0.24063151 3.461
-0.55779678 0.23325117 3.4360001
-0.55215681 0.23325117 3.4360001
-0.5466758 0.23331904 3.437
-0.43443018 0.23671328 3.487
-0.42784587 0.23623809 3.48
-0.42079926 0.23549137 3.4690001
-0.41438714 0.23508406 3.4630001
-0.40846673 0.23494828 3.461
-0.40301841 0.23508406 3.4630001
-0.33809352 0.23739213 3.497
-0.33073768 0.23623809 3.48
-0.32418483 0.23562711 3.471
-0.31784511 0.23515193 3.464
-0.31188875 0.23494828 3.461
-0.30629617 0.23501615 3.4619999
-0.18658149 0.23454095 3.4549999
-0.18101501 0.23467673 3.457
-0.17539124 0.23474462 3.4579999
-0.16976419 0.23481251 3.4590001
-0.16399154 0.23467673 3.457
-0.15827127 0.23460886 3.4560001
-0.15259841 0.23460886 3.4560001
-0.14692555 0.23460886 3.4560001
-0.14133444 0.23474462 3.4579999
-0.13557985 0.23460886 3.4560001
-0.13001977 0.23481251 3.4590001
-0.65310639 0.22741026 3.4330001
-0.56924242 0.22767523 3.437
-0.56376475 0.22774148 3.438
-0.55795914 0.22767523 3.437
-0.55247813 0.22774148 3.438
-0.5466758 0.22767523 3.437
-0.54103416 0.22767523 3.437
-0.53492516 0.22747651 3.434
-0.41618201 0.23039116 3.4779999
-0.410119 0.23019244 3.4749999
-0.34344035 0.23138481 3.493
-0.33741674 0.23118606 3.49
-0.3305476 0.23039116 3.4779999
-0.32399806 0.22979501 3.4690001
-0.31784511 0.22946379 3.464
-0.312069 0.22939754 3.4630001
-0.18647349 0.2287351 3.4530001
-0.18096265 0.22893384 3.4560001
-0.17534052 0.22900008 3.457
-0.16976419 0.22913256 3.4590001
-0.16399154 0.22900008 3.457
-0.15836285 0.22906631 3.4579999
-0.15255424 0.22886761 3.4549999
-0.14692555 0.22893384 3.4560001
-0.14129359 0.22900008 3.457
-0.13557985 0.22893384 3.4560001
-0.13001977 0.22913256 3.4590001
-0.66457015 0.2218376 3.434
-0.65874153 0.221773 3.4330001
-0.65310639 0.221773 3.4330001
-0.64728266 0.2217084 3.4319999
-0.60979676 0.22241899 3.4430001
-0.60449618 0.22254822 3.4449999
-0.59831989 0.2223544 3.4419999
-0.59215343 0.22216059 3.4389999
-0.58650851 0.22216059 3.4389999
-0.5808636 0.22216059 3.4389999
-0.57488412 0.2220314 3.437
-0.56940806 0.222096 3.438
-0.56376475 0.222096 3.438
-0.5581215 0.222096 3.438
-0.55215681 0.22196682 3.4360001
-0.54683489 0.222096 3.438
-0.54119152 0.222096 3.438
-0.53539252 0.2220314 3.437
-0.528826 0.22164381 3.431
-0.33130792 0.22519682 3.4860001
-0.32493207 0.22474463 3.4790001
-0.3186709 0.22435702 3.473
-0.18641949 0.22300041 3.4519999
-0.18091029 0.22319421 3.4549999
-0.17528981 0.22325881 3.4560001
-0.16971511 0.223388 3.4579999
-0.16403897 0.223388 3.4579999
-0.15840864 0.22345261 3.4590001
-0.15264255 0.2233234 3.457
-0.14688304 0.22319421 3.4549999
-0.14125271 0.22325881 3.4560001
-0.13554062 0.22319421 3.4549999
-0.13001977 0.22345261 3.4590001
-0.66476363 0.21626166 3.4349999
-0.65874153 0.21613574 3.4330001
-0.65291613 0.21607278 3.4319999
-0.64709407 0.21600984 3.431
-0.64108837 0.21588391 3.4289999
-0.63545978 0.21588391 3.4289999
-0.630566 0.21613574 3.4330001
-0.62565905 0.21638758 3.437
-0.62073898 0.2166394 3.441
-0.61526948 0.21670237 3.4419999
-0.60961962 0.21670237 3.4419999
-0.60396975 0.21670237 3.4419999
-0.59831989 0.21670237 3.4419999
-0.59215343 0.21651348 3.4389999
-0.58633792 0.21645053 3.438
-0.58052576 0.21638758 3.437
-0.57471687 0.21632461 3.4360001
-0.56907684 0.21632461 3.4360001
-0.56376475 0.21645053 3.438
-0.55828381 0.21651348 3.4389999
-0.55247813 0.21645053 3.438
-0.54651678 0.21632461 3.4360001
-0.54119152 0.21645053 3.438
-0.53539252 0.21638758 3.437
-0.52898014 0.21607278 3.4319999
-0.52243179 0.21569504 3.4260001
-0.35692421 0.21764673 3.457
-0.18625747 0.21714307 3.4489999
-0.18091029 0.21752082 3.4549999
-0.17534052 0.21764673 3.457
-0.16976419 0.21777266 3.4590001
-0.16408642 0.21777266 3.4590001
-0.15845443 0.21783563 3.46
-0.15273087 0.21777266 3.4590001
-0.14696807 0.21764673 3.457
-0.14129359 0.21764673 3.457
-0.13554062 0.21752082 3.4549999
-0.13001977 0.21777266 3.4590001
-0.66476363 0.21062112 3.4349999
-0.65912527 0.21062112 3.4349999
-0.65329665 0.2105598 3.434
-0.64747131 0.21049848 3.4330001
-0.64127529 0.21031456 3.4300001
-0.63545978 0.21025321 3.4289999
-0.63001502 0.21031456 3.4300001
-0.62529498 0.21062112 3.4349999
-0.62019783 0.21080504 3.438
-0.61473328 0.21086636 3.4389999
-0.60926545 0.2109277 3.4400001
-0.60396975 0.21105033 3.4419999
-0.59797227 0.2109277 3.4400001
-0.59198129 0.21080504 3.438
-0.58616745 0.21074377 3.437
-0.58052576 0.21074377 3.437
-0.57488412 0.21074377 3.437
-0.56924242 0.21074377 3.437
-0.56360078 0.21074377 3.437
-0.5581215 0.21080504 3.438
-0.55247813 0.21080504 3.438
-0.5466758 0.21074377 3.437
-0.54119152 0.21080504 3.438
-0.53508091 0.21062112 3.4349999
-0.52898014 0.21043715 3.4319999
-0.5228892 0.21025321 3.4289999
-0.51665729 0.21000795 3.425
-0.35609823 0.21147954 3.4489999
-0.18620346 0.21141823 3.448
-0.18085793 0.21178612 3.454
-0.17534052 0.21197009 3.457
-0.16991143 0.21227665 3.4619999
-0.16418129 0.21221533 3.461
-0.15854602 0.21227665 3.4619999
-0.15281917 0.21221533 3.461
-0.14709561 0.21215403 3.46
-0.14137532 0.21209271 3.4590001
-0.13569754 0.21209271 3.4590001
-0.13009496 0.21221533 3.461
-0.66457015 0.2049209 3.434
-0.65893334 0.2049209 3.434
-0.65310639 0.20486124 3.4330001
-0.64728266 0.20480154 3.4319999
-0.64108837 0.20462252 3.4289999
-0.63564515 0.2046822 3.4300001
-0.63093334 0.20498058 3.4349999
-0.62493092 0.20486124 3.4330001
-0.62019783 0.20515959 3.438
-0.61473328 0.20521925 3.4389999
-0.60908824 0.20521925 3.4389999
-0.60361886 0.20527895 3.4400001
-0.59727693 0.20504026 3.4360001
-0.59180909 0.20509993 3.437
-0.58599693 0.20504026 3.4360001
-0.5803569 0.20504026 3.4360001
-0.57471687 0.20504026 3.4360001
-0.56924242 0.20509993 3.437
-0.56360078 0.20509993 3.437
-0.5581215 0.20515959 3.438
-0.55247813 0.20515959 3.438
-0.5466758 0.20509993 3.437
-0.54087675 0.20504026 3.4360001
-0.53523672 0.20504026 3.4360001
-0.52913427 0.20486124 3.4330001
-0.52304173 0.2046822 3.4300001
-0.51710981 0.20456286 3.428
-0.51058769 0.20420481 3.4219999
-0.18598746 0.20551763 3.444
-0.1807532 0.20599502 3.4519999
-0.17539124 0.20635307 3.4579999
-0.1699605 0.20665145 3.4630001
-0.16441849 0.20683047 3.4660001
-0.15882081 0.20694982 3.4679999
-0.1530841 0.20689014 3.467
-0.14735068 0.20683047 3.4660001
-0.14166144 0.20683047 3.4660001
-0.1358937 0.20671113 3.464
-0.13028291 0.20683047 3.4660001
-0.66457015 0.19928201 3.434
-0.65893334 0.19928201 3.434
-0.65310639 0.19922398 3.4330001
-0.6476599 0.19928201 3.434
-0.64164919 0.19916594 3.4319999
-0.63583046 0.1991079 3.431
-0.6307497 0.19928201 3.434
-0.62493092 0.19922398 3.4330001
-0.61965662 0.19934003 3.4349999
-0.61437571 0.1994561 3.437
-0.60873413 0.1994561 3.437
-0.60326791 0.19951412 3.438
-0.59745073 0.1994561 3.437
-0.59163696 0.19939807 3.4360001
-0.58599693 0.19939807 3.4360001
-0.58001906 0.19928201 3.434
-0.57421505 0.19922398 3.4330001
-0.56907684 0.19939807 3.4360001
-0.56360078 0.1994561 3.437
-0.55828381 0.19957216 3.4389999
-0.55247813 0.19951412 3.438
-0.54683489 0.19951412 3.438
-0.54087675 0.19939807 3.4360001
-0.53523672 0.19939807 3.4360001
-0.52928841 0.19928201 3.434
-0.52349919 0.19922398 3.4330001
-0.51756239 0.1991079 3.431
-0.51118457 0.19881776 3.4260001
-0.18070084 0.20026854 3.451
-0.17534052 0.20061673 3.457
-0.16991143 0.20090689 3.4619999
-0.16460824 0.20137115 3.47
-0.15891241 0.20137115 3.47
-0.15317242 0.20131314 3.4690001
-0.14743571 0.20125508 3.4679999
-0.14170229 0.20119706 3.467
-0.66437662 0.19358671 3.4330001
-0.65874153 0.19358671 3.4330001
-0.65291613 0.19353032 3.4319999
-0.64747131 0.19358671 3.4330001
-0.64202315 0.19364309 3.434
-0.63620114 0.19358671 3.4330001
-0.630566 0.19358671 3.4330001
-0.62493092 0.19358671 3.4330001
-0.6194762 0.19364309 3.434
-0.6140182 0.19369948 3.4349999
-0.60837984 0.19369948 3.4349999
-0.60291696 0.19375588 3.4360001
-0.59762454 0.19386865 3.438
-0.59163696 0.19375588 3.4360001
-0.58599693 0.19375588 3.4360001
-0.58018798 0.19369948 3.4349999
-0.57388049 0.19347394 3.431
-0.56907684 0.19375588 3.4360001
-0.56343681 0.19375588 3.4360001
-0.55828381 0.19392504 3.4389999
-0.55279952 0.19398144 3.4400001
-0.54683489 0.19386865 3.438
-0.54119152 0.19386865 3.438
-0.53523672 0.19375588 3.4360001
-0.52944255 0.19369948 3.4349999
-0.52380419 0.19369948 3.4349999
-0.51801491 0.19364309 3.434
-0.51193058 0.19347394 3.431
-0.20308316 0.17057961 3.0250001
-0.17549267 0.19510925 3.46
-0.17020589 0.19556035 3.4679999
-0.16489285 0.19601148 3.4760001
-0.66398954 0.18783996 3.431
-0.65854961 0.1878947 3.4319999
-0.65291613 0.1878947 3.4319999
-0.64747131 0.18794945 3.4330001
-0.64202315 0.1880042 3.434
-0.63620114 0.18794945 3.4330001
-0.6307497 0.1880042 3.434
-0.62493092 0.18794945 3.4330001
-0.61929584 0.18794945 3.4330001
-0.61366075 0.18794945 3.4330001
-0.6082027 0.1880042 3.434
-0.60274148 0.18805894 3.4349999
-0.59727693 0.18811369 3.4360001
-0.5914647 0.18805894 3.4349999
-0.58565581 0.1880042 3.434
-0.57985014 0.18794945 3.4330001
-0.57404774 0.1878947 3.4319999
-0.56891119 0.18805894 3.4349999
-0.56310886 0.1880042 3.434
-0.55779678 0.18811369 3.4360001
-0.55247813 0.18822318 3.438
-0.54699391 0.18827793 3.4389999
-0.54119152 0.18822318 3.438
-0.53539252 0.18816844 3.437
-0.52975082 0.18816844 3.437
-0.52441412 0.18827793 3.4389999
-0.51922172 0.18844219 3.4419999
-0.51282585 0.18816844 3.437
-0.21266183 0.16533858 3.02
-0.20749831 0.16517434 3.017
-0.20281461 0.16539332 3.0209999
-0.19837974 0.16583131 3.029
-0.17064761 0.19035836 3.477
-0.16546209 0.19096057 3.4879999
-0.66418308 0.18225908 3.4319999
-0.65854961 0.18225908 3.4319999
-0.65310639 0.18231219 3.4330001
-0.64747131 0.18231219 3.4330001
-0.64202315 0.1823653 3.434
-0.63657171 0.18241839 3.4349999
-0.6307497 0.1823653 3.434
-0.62493092 0.18231219 3.4330001
-0.61911541 0.18225908 3.4319999
-0.61330318 0.18220598 3.431
-0.60784853 0.18225908 3.4319999
-0.60239059 0.18231219 3.4330001
-0.59692925 0.1823653 3.434
-0.5914647 0.18241839 3.4349999
-0.58565581 0.1823653 3.434
-0.5795123 0.18220598 3.431
-0.57304424 0.18194047 3.4260001
-0.56758618 0.18199356 3.427
-0.56212497 0.18204667 3.428
-0.55698508 0.18220598 3.431
-0.55183536 0.1823653 3.434
-0.54619861 0.1823653 3.434
-0.54119152 0.18257771 3.438
-0.53554827 0.18257771 3.438
-0.53005904 0.18263082 3.4389999
-0.52456665 0.18268394 3.4400001
-0.51907086 0.18273704 3.441
-0.28646585 0.15735246 2.9630001
-0.28198239 0.15756489 2.967
-0.27785939 0.15798973 2.9749999
-0.21805134 0.16069815 3.026
-0.21230973 0.16011398 3.0150001
-0.20729198 0.16006087 3.0139999
-0.20254606 0.16022018 3.017
-0.19798677 0.16053882 3.023
-0.66398954 0.17657201 3.431
-0.65854961 0.17662346 3.4319999
-0.65291613 0.17662346 3.4319999
-0.64728266 0.17662346 3.4319999
-0.64183623 0.17667493 3.4330001
-0.63620114 0.17667493 3.4330001
-0.6303823 0.17662346 3.4319999
-0.62493092 0.17667493 3.4330001
-0.61875468 0.17652054 3.4300001
-0.61294568 0.17646907 3.4289999
-0.60714006 0.1764176 3.428
-0.60098678 0.17626321 3.425
-0.59536481 0.17626321 3.425
-0.58974284 0.17626321 3.425
-0.58395034 0.17621176 3.424
-0.57782328 0.17605737 3.421
-0.57153887 0.17585152 3.4170001
-0.56593001 0.17585152 3.4170001
-0.56048518 0.17590298 3.418
-0.55519933 0.17600591 3.4200001
-0.55006772 0.17616029 3.4230001
-0.54492623 0.1763147 3.4260001
-0.53993225 0.17652054 3.4300001
-0.53508091 0.17677785 3.4349999
-0.53021324 0.17703518 3.4400001
-0.52502412 0.17718957 3.4430001
-0.51952344 0.17724103 3.444
-0.29241103 0.15305309 2.974
-0.28839946 0.15351626 2.983
-0.2841683 0.1538765 2.99
-0.27991414 0.15423675 2.997
-0.24468122 0.16015509 3.112
-0.22397651 0.15639822 3.039
-0.21790724 0.15562627 3.0239999
-0.21202806 0.15495723 3.0109999
-0.20722322 0.15506017 3.013
-0.20247893 0.15521456 3.016
-0.19785577 0.15547188 3.0209999
-0.66360241 0.17083839 3.4289999
-0.65816581 0.17088822 3.4300001
-0.65272593 0.17093803 3.431
-0.64728266 0.17098784 3.4319999
-0.64183623 0.17103769 3.4330001
-0.63638645 0.17108749 3.434
-0.63093334 0.17113732 3.4349999
-0.62474889 0.17098784 3.4319999
-0.61893499 0.17093803 3.431
-0.61240947 0.17068893 3.4260001
-0.60607737 0.17048962 3.4219999
-0.59958303 0.17024054 3.4170001
-0.59380031 0.17019069 3.4159999
-0.58767658 0.17004125 3.4130001
-0.58105105 0.16974232 3.4070001
-0.57512081 0.16964267 3.405
-0.56919718 0.16954303 3.4030001
-0.56311446 0.16939355 3.4000001
-0.55736953 0.16934374 3.3989999
-0.5521149 0.16944338 3.401
-0.54701442 0.16959284 3.404
-0.53788584 0.17024054 3.4170001
-0.53336746 0.17058928 3.424
-0.52928841 0.17108749 3.434
-0.52487159 0.17148606 3.4419999
-0.51982516 0.17168535 3.4460001
-0.42434725 0.15170687 3.0450001
-0.41810957 0.15125848 3.036
-0.41162932 0.15071045 3.0250001
-0.40639505 0.1506108 3.023
-0.30339363 0.14876741 2.9860001
-0.29919198 0.14911616 2.993
-0.29398417 0.14896668 2.99
-0.29004306 0.14946491 3
-0.23587781 0.15265349 3.0639999
-0.22919089 0.15155742 3.0420001
-0.22294469 0.15071045 3.0250001
-0.21747488 0.15036169 3.0179999
-0.21202806 0.15001294 3.0109999
-0.20736077 0.15021223 3.0150001
-0.20268033 0.15041152 3.0190001
-0.19792129 0.15056099 3.0220001
-0.66205424 0.16482227 3.421
-0.65663075 0.16487044 3.4219999
-0.65082347 0.16482227 3.421
-0.6455853 0.16491862 3.4230001
-0.64034051 0.16501497 3.425
-0.63508922 0.16511133 3.427
-0.62983131 0.1652077 3.4289999
-0.62365669 0.16506317 3.4260001
-0.61695075 0.16477409 3.4200001
-0.6095494 0.16429229 3.4100001
-0.60271227 0.16395503 3.4030001
-0.59624904 0.16371414 3.398
-0.577299 0.1630878 3.385
-0.57089823 0.16284691 3.3800001
-0.4344863 0.14675494 3.046
-0.4299095 0.14689948 3.049
-0.42434725 0.14670675 3.0450001
-0.41810957 0.14627314 3.036
-0.41162932 0.14574316 3.0250001
-0.40626064 0.14559862 3.0220001
-0.40143296 0.1456468 3.023
-0.39660197 0.14569497 3.0239999
-0.31172791 0.14318964 2.9719999
-0.30674627 0.14314146 2.971
-0.30247918 0.14343053 2.977
-0.29859221 0.14391233 2.987
-0.29467243 0.14439413 2.997
-0.23980646 0.14694764 3.05
-0.23410718 0.14651401 3.0409999
-0.22821145 0.14593588 3.029
-0.22264986 0.14555043 3.0209999
-0.21769105 0.14555043 3.0209999
-0.21280266 0.14559862 3.0220001
-0.20777342 0.14555043 3.0209999
-0.20294888 0.1456468 3.023
-0.19824874 0.14583951 3.027
-0.19359934 0.14608042 3.0320001
-0.65490383 0.1588324 3.4130001
-0.63847089 0.15892547 3.415
-0.63268006 0.15887895 3.414
-0.62707615 0.15887895 3.414
-0.62056202 0.15864626 3.4089999
-0.61280161 0.15808782 3.3970001
-0.60490185 0.15748282 3.3840001
-0.434201 0.14166008 3.0439999
-0.42948645 0.14175315 3.046
-0.42392918 0.14156701 3.0420001
-0.41769642 0.14114816 3.033
-0.41176537 0.14082241 3.026
-0.40626064 0.14063627 3.0220001
-0.40156573 0.14072932 3.0239999
-0.39660197 0.14072932 3.0239999
-0.31120348 0.13807669 2.967
-0.30643651 0.13812323 2.9679999
-0.30217436 0.13840246 2.974
-0.29819235 0.13882129 2.983
-0.29388586 0.13910052 2.9890001
-0.25298765 0.14091548 3.0280001
-0.24785352 0.14082241 3.026
-0.24320756 0.14100856 3.03
-0.23776221 0.14072932 3.0239999
-0.23264451 0.14063627 3.0220001
-0.22723199 0.14035703 3.016
-0.22213398 0.14026394 3.0139999
-0.21754694 0.14049664 3.0190001
-0.21252097 0.14045009 3.0179999
-0.2078422 0.14063627 3.0220001
-0.20281461 0.14058971 3.0209999
-0.19792129 0.14063627 3.0220001
-0.19315238 0.14077587 3.0250001
-0.61655724 0.15206072 3.3870001
-0.60720938 0.15111791 3.3659999
-0.43377307 0.1365269 3.0409999
-0.42892244 0.13657181 3.0420001
-0.42351109 0.13643712 3.039
-0.41755873 0.13612285 3.0320001
-0.41230968 0.13603304 3.03
-0.40720165 0.13598816 3.029
-0.4023625 0.13603304 3.03
-0.39699543 0.13589837 3.027
-0.39150876 0.13571878 3.023
-0.31067902 0.13298015 2.9619999
-0.3057138 0.13293527 2.961
-0.3014631 0.13320465 2.967
-0.29739261 0.1335638 2.9749999
-0.29300094 0.13378827 2.98
-0.25265342 0.13576367 3.0239999
-0.24695253 0.13535963 3.0150001
-0.24176277 0.13522494 3.0120001
-0.23626834 0.13491067 3.0050001
-0.23133577 0.13491067 3.0050001
-0.2267046 0.13509025 3.0090001
-0.22176547 0.13509025 3.0090001
-0.21740282 0.13544941 3.017
-0.21259141 0.1355392 3.0190001
-0.20791097 0.13571878 3.023
-0.20288174 0.1356739 3.0220001
-0.19772479 0.1355392 3.0190001
-0.19283311 0.1355841 3.02
-0.43377307 0.13153334 3.0409999
-0.42878145 0.13153334 3.0409999
-0.42337173 0.13140358 3.0380001
-0.41769642 0.13118732 3.033
-0.41285399 0.13123056 3.0339999
-0.40787381 0.13123056 3.0339999
-0.40355763 0.13144684 3.039
-0.39830694 0.13136032 3.0369999
-0.39241531 0.13105755 3.03
-0.38654664 0.13075478 3.023
-0.38044849 0.13036549 3.0139999
-0.31120348 0.12833259 2.967
-0.30581704 0.12811632 2.9619999
-0.30115828 0.12820284 2.964
-0.29669291 0.12837584 2.9679999
-0.2920177 0.12846236 2.97
-0.25215212 0.13053851 3.0179999
-0.24613346 0.12997623 3.0050001
-0.24063902 0.12967345 2.9979999
-0.23524621 0.12941393 2.9920001
-0.23056595 0.12954368 2.9949999
-0.22602651 0.12975995 3
-0.22176547 0.13014925 3.0090001
-0.21725872 0.13040876 3.0150001
-0.21245056 0.13049527 3.017
-0.2078422 0.13071154 3.0220001
-0.20281461 0.13066827 3.0209999
-0.19759381 0.13049527 3.017
-0.19251387 0.13040876 3.0150001
-0.88341099 0.23352228 5.612
-0.87513381 0.23377194 5.618
-0.86622036 0.23385514 5.6199999
-0.85836786 0.23422967 5.6290002
-0.85033494 0.23456256 5.6370001
-0.42878145 0.12653978 3.0409999
-0.42309302 0.12633172 3.036
-0.41769642 0.12620687 3.033
-0.41339833 0.12641494 3.0380001
-0.40894929 0.1265814 3.0420001
-0.40448719 0.12674783 3.046
-0.39961845 0.12678944 3.0469999
-0.3937104 0.12649816 3.04
-0.38744172 0.12608205 3.03
-0.38044849 0.12541626 3.0139999
-0.37475365 0.12516659 3.0079999
-0.37067679 0.12545788 3.0150001
-0.3065398 0.12354378 2.9690001
-0.3014631 0.12346055 2.967
-0.29103449 0.12316927 2.96
-0.25190151 0.12545788 3.0150001
-0.24498674 0.12445921 2.9909999
-0.23991664 0.12437599 2.9890001
-0.23469582 0.12420954 2.9849999
-0.23018102 0.12441761 2.99
-0.2258005 0.12470888 2.997
-0.22147067 0.12504178 3.0050001
-0.21725872 0.12545788 3.0150001
-0.21223933 0.12541626 3.0139999
-0.20742954 0.12549949 3.016
-0.20234466 0.12541626 3.0139999
-0.19720085 0.12529144 3.0109999
-0.98789942 0.22502637 5.6300001
-0.97796273 0.22486648 5.6259999
-0.96907222 0.22494641 5.6279998
-0.95846987 0.22462668 5.6199999
-0.94890708 0.22454675 5.618
-0.93985277 0.22458671 5.619
-0.93062943 0.22458671 5.619
-0.92075014 0.22442682 5.6149998
-0.91169584 0.22446682 5.6160002
-0.903763 0.22478655 5.6240001
-0.89548582 0.22502637 5.6300001
-0.88640183 0.22506633 5.631
-0.87824929 0.2253461 5.638
-0.86945719 0.22546603 5.6409998
-0.86126518 0.2257458 5.6479998
-0.42295367 0.1213064 3.0350001
-0.41742098 0.12114652 3.0309999
-0.41367045 0.12150624 3.04
-0.40962148 0.12178602 3.0469999
-0.4055495 0.12206581 3.0539999
-0.40079883 0.12214576 3.056
-0.39474651 0.121826 3.0480001
-0.38833681 0.12138633 3.0369999
-0.38044849 0.12046704 3.0139999
-0.3742553 0.12006735 3.0039999
-0.30746898 0.11902816 2.9779999
-0.2901496 0.11794899 2.951
-0.27286887 0.12102662 3.0280001
-0.26869482 0.12138633 3.0369999
-0.26405707 0.12154621 3.0409999
-0.25863948 0.12134636 3.036
-0.25240278 0.12074682 3.0209999
-0.24547817 0.11978757 2.997
-0.23991664 0.11946782 2.9890001
-0.23445995 0.11918804 2.9820001
-0.22987308 0.11934791 2.9860001
-0.22564979 0.11970763 2.9949999
-0.22139697 0.12006735 3.0039999
-0.21711458 0.12042708 3.013
-0.21223933 0.12046704 3.0139999
-0.20729198 0.12046704 3.0139999
-0.20214325 0.12034713 3.0109999
-0.19700436 0.12022723 3.0079999
-0.19206688 0.12022723 3.0079999
-0.79520059 0.15748598 4.1090002
-0.78979903 0.15775427 4.1160002
-0.9898296 0.21620305 5.6409998
-0.98161316 0.21643302 5.6469998
-0.97286046 0.216548 5.6500001
-0.96205127 0.21620305 5.6409998
-0.95245409 0.2161264 5.6389999
-0.94403434 0.21631803 5.6440001
-0.93526685 0.21643302 5.6469998
-0.92402989 0.21597311 5.6350002
-0.91445559 0.21589643 5.6329999
-0.90617347 0.2161264 5.6389999
-0.89818978 0.21643302 5.6469998
-0.88027436 0.21658634 5.651
-0.87207747 0.2168546 5.658
-0.8644675 0.21727623 5.6690001
-0.4225356 0.11620771 3.0320001
-0.41714555 0.11609273 3.029
-0.41353437 0.116476 3.039
-0.40989035 0.11685927 3.049
-0.40608072 0.1172042 3.0580001
-0.40158576 0.11735751 3.062
-0.3960416 0.1172042 3.0580001
-0.38833681 0.11639934 3.0369999
-0.38070095 0.11559448 3.016
-0.37363237 0.11494292 2.9990001
-0.36698845 0.11440632 2.9849999
-0.3614822 0.1142147 2.98
-0.31571364 0.11536451 3.01
-0.30850145 0.11452131 2.9879999
-0.30166635 0.1137931 2.9690001
-0.29549333 0.11329485 2.9560001
-0.28955963 0.11287326 2.9449999
-0.28559572 0.11321819 2.954
-0.27508649 0.11490458 2.9979999
-0.27124679 0.11536451 3.01
-0.26719075 0.11574778 3.02
-0.26310191 0.11613105 3.03
-0.25778756 0.11597775 3.026
-0.25165084 0.11544117 3.0120001
-0.24539627 0.11482793 2.9960001
-0.23959555 0.11440632 2.9849999
-0.23430271 0.1142147 2.98
-0.2297961 0.11440632 2.9849999
-0.2254238 0.11467463 2.9920001
-0.22095476 0.11490458 2.9979999
-0.21632193 0.1150579 3.0020001
-0.21132387 0.11501956 3.0009999
-0.20667301 0.11517288 3.0050001
-0.20174046 0.11517288 3.0050001
-0.1967424 0.11513454 3.0039999
-0.19181147 0.11513454 3.0039999
-0.7942329 0.15055525 4.1040001
-0.98682803 0.20826074 5.677
-0.97837049 0.20844418 5.6820002
-0.9673382 0.20807731 5.6719999
-0.95701456 0.20785721 5.6659999
-0.94804871 0.20793058 5.6680002
-0.93957293 0.208114 5.6729999
-0.92829329 0.20767377 5.6609998
-0.91818941 0.20749035 5.6560001
-0.90954804 0.20763709 5.6599998
-0.87577659 0.20844418 5.6820002
-0.86888975 0.20903112 5.698
-0.86164856 0.20954472 5.7119999
-0.42197815 0.11108219 3.0280001
-0.41687012 0.11104549 3.027
-0.41271791 0.1112656 3.033
-0.40894929 0.11159578 3.0420001
-0.40568233 0.11207268 3.0550001
-0.40145463 0.11229279 3.0610001
-0.39668915 0.11236615 3.063
-0.39140564 0.11229279 3.0610001
-0.38107964 0.11075201 3.0190001
-0.37375697 0.110055 3
-0.36674255 0.10943136 2.983
-0.36099702 0.10917456 2.9760001
-0.33767378 0.11280638 3.075
-0.33186913 0.11254958 3.0680001
-0.32406339 0.11159578 3.0420001
-0.31676257 0.1107887 3.02
-0.30953392 0.10998163 2.9979999
-0.28569239 0.10840417 2.9549999
-0.28150719 0.10866097 2.9619999
-0.27776599 0.10910119 2.974
-0.27407715 0.1095781 2.987
-0.2699852 0.10990826 2.9960001
-0.26621759 0.11038516 3.0090001
-0.26119161 0.11034847 3.0079999
-0.25668007 0.1105319 3.013
-0.2508989 0.11016506 3.003
-0.24506864 0.10976153 2.9920001
-0.23983635 0.10961477 2.9879999
-0.23508894 0.10968816 2.99
-0.23048896 0.10983489 2.994
-0.22595116 0.11001832 2.9990001
-0.22117585 0.11009168 3.0009999
-0.21624987 0.11009168 3.0009999
-0.2114647 0.11016506 3.003
-0.20660421 0.11020174 3.0039999
-0.2016733 0.11020174 3.0039999
-0.1966769 0.11016506 3.003
-0.19181147 0.11020174 3.0039999
-0.79345876 0.14367597 4.0999999
-0.99239057 0.20006004 5.7090001
-0.98319167 0.20009507 5.71
-0.97211349 0.19974464 5.6999998
-0.96208173 0.19960448 5.6960001
-0.95273197 0.19960448 5.6960001
-0.9435479 0.19963951 5.697
-0.9332127 0.19942926 5.691
-0.92387116 0.19942926 5.691
-0.91517252 0.19956943 5.6950002
-0.90725601 0.19988482 5.704
-0.89071119 0.20037542 5.7179999
-0.88240421 0.20062073 5.7249999
-0.87453192 0.20097116 5.7350001
-0.84953719 0.2017421 5.757
-0.84227616 0.20226774 5.7719998
-0.8338117 0.20251304 5.7789998
-0.42169943 0.10603988 3.026
-0.41687012 0.10607492 3.027
-0.41258183 0.10625014 3.0320001
-0.40841156 0.10646039 3.0380001
-0.40461996 0.10677578 3.0469999
-0.40079883 0.10709116 3.056
-0.39552352 0.10702108 3.0539999
-0.38948762 0.10674074 3.046
-0.38171077 0.10596979 3.0239999
-0.37388155 0.10516381 3.0009999
-0.36711138 0.10463816 2.9860001
-0.36099702 0.10428774 2.9760001
-0.35587272 0.10421765 2.974
-0.33591676 0.10719629 3.059
-0.33057106 0.10709116 3.056
-0.32310462 0.10628518 3.033
-0.317287 0.10600483 3.0250001
-0.31108266 0.10558432 3.013
-0.30451128 0.10502363 2.997
-0.28169727 0.10386722 2.964
-0.27748579 0.10411251 2.971
-0.27352661 0.10446294 2.9809999
-0.26899391 0.10460311 2.9849999
-0.26444811 0.10474329 2.9890001
-0.26023644 0.10502363 2.997
-0.25548741 0.10509372 2.9990001
-0.2507318 0.10516381 3.0009999
-0.24531434 0.10495354 2.9949999
-0.24055876 0.10502363 2.997
-0.23634696 0.10533902 3.006
-0.23156673 0.1054091 3.0079999
-0.2267046 0.10544416 3.0090001
-0.22161807 0.10537406 3.007
-0.21632193 0.10519886 3.0020001
-0.21153514 0.10526893 3.0039999
-0.20660421 0.10526893 3.0039999
-0.2016733 0.10526893 3.0039999
-0.19680789 0.10530398 3.0050001
-0.19193919 0.10533902 3.006
-0.24416772 0.20934641 5.974
-0.99604094 0.19138682 5.73
-0.98732424 0.19152042 5.7340002
-0.97740054 0.19142021 5.7309999
-0.96731776 0.19128662 5.7270002
-0.95825171 0.19135343 5.7290001
-0.94917911 0.19142021 5.7309999
-0.93895197 0.19125322 5.7259998
-0.91282296 0.19168742 5.7389998
-0.90497679 0.19202144 5.7490001
-0.89585161 0.19208823 5.7509999
-0.87160468 0.19299006 5.7779999
-0.85381651 0.19325726 5.7859998
-0.84607023 0.19365807 5.7979999
-0.42156008 0.10103755 3.0250001
-0.4167324 0.10107095 3.026
-0.41203752 0.10113775 3.0280001
-0.40787381 0.10133815 3.0339999
-0.40395603 0.10160536 3.0420001
-0.39988077 0.10183916 3.049
-0.39461696 0.10177236 3.0469999
-0.38782534 0.10130475 3.033
-0.38120586 0.10087054 3.02
-0.37450448 0.10040293 3.006
-0.36723435 0.099768311 2.987
-0.36123961 0.099467702 2.9779999
-0.35587272 0.099334106 2.974
-0.33317143 0.10133815 3.0339999
-0.32851583 0.10143836 3.0369999
-0.32267851 0.10117115 3.029
-0.31739187 0.10107095 3.026
-0.31263137 0.10113775 3.0280001
-0.30715302 0.10097075 3.023
-0.28274271 0.099367499 2.9749999
-0.27776599 0.099334106 2.974
-0.27325135 0.099467702 2.9779999
-0.26836312 0.099467702 2.9779999
-0.26329792 0.099400908 2.9760001
-0.25884715 0.099567905 2.9809999
-0.25463551 0.09983512 2.9890001
-0.25039762 0.10010232 2.997
-0.24588774 0.10026933 3.0020001
-0.24152195 0.10050313 3.0090001
-0.23752633 0.10090394 3.0209999
-0.23279847 0.10100414 3.0239999
-0.2276087 0.10090394 3.0209999
-0.22213398 0.10067014 3.0139999
-0.21653812 0.10036953 3.0050001
-0.21153514 0.10033612 3.0039999
-0.20653546 0.10030273 3.003
-0.2016733 0.10033612 3.0039999
-0.19680789 0.10036953 3.0050001
-0.19206688 0.10046973 3.0079999
-0.24514866 0.20033824 5.9980001
-0.79074943 0.1297663 4.086
-1.0003867 0.18277167 5.7550001
-0.99197328 0.18296222 5.7610002
-0.98285794 0.18302575 5.763
-0.97356719 0.1830575 5.7639999
-0.96427315 0.18308926 5.7649999
-0.95547265 0.18321629 5.7690001
-0.94551116 0.18312103 5.7659998
-0.91032892 0.18366091 5.783
-0.8768844 0.18461369 5.8130002
-0.86749184 0.18464544 5.8140001
-0.85853869 0.18477248 5.8179998
-0.85001016 0.18499479 5.8249998
-0.42100263 0.09594322 3.0209999
-0.41687012 0.096133769 3.027
-0.41190144 0.096133769 3.027
-0.40760496 0.09629257 3.0320001
-0.40315926 0.096419603 3.036
-0.39856926 0.096514881 3.039
-0.39319238 0.096419603 3.036
-0.38654664 0.096006736 3.023
-0.38057473 0.095752671 3.0150001
-0.37475365 0.095530353 3.0079999
-0.36797202 0.095053978 2.993
-0.36196741 0.094768144 2.984
-0.35671034 0.094672866 2.9809999
-0.35158116 0.09460935 2.9790001
-0.3299869 0.095435083 3.0050001
-0.32570335 0.095625632 3.0109999
-0.32161319 0.095879704 3.0190001
-0.31749678 0.096133769 3.027
-0.31345731 0.096419603 3.036
-0.30918512 0.096641913 3.043
-0.30518982 0.096959502 3.053
-0.28435838 0.095022216 2.9920001
-0.27841976 0.094672866 2.9809999
-0.27343485 0.094641112 2.98
-0.26800266 0.094450556 2.974
-0.26285556 0.094355278 2.971
-0.2582393 0.094450556 2.974
-0.25395396 0.094672866 2.9809999
-0.24997987 0.095022216 2.9920001
-0.24605154 0.095403321 3.0039999
-0.24224435 0.095847942 3.0179999
-0.23839121 0.09629257 3.0320001
-0.23372228 0.096419603 3.036
-0.22843747 0.09629257 3.0320001
-0.22272357 0.095974982 3.0220001
-0.21682635 0.095562115 3.0090001
-0.21160556 0.095435083 3.0050001
-0.20653546 0.095371559 3.003
-0.2016733 0.095403321 3.0039999
-0.19693887 0.095498599 3.007
-0.1921946 0.09559387 3.01
-0.2561419 0.19134654 6.0250001
-0.24576172 0.19096543 6.013
-0.23565631 0.19077489 6.007
-0.79036236 0.12299654 4.0840001
-0.78461814 0.12314712 4.0890002
-1.0052539 0.17416477 5.783
-0.99731112 0.17443582 5.7919998
-0.98865652 0.17458642 5.7969999
-0.97880334 0.17452617 5.7950001
-0.9697929 0.17461653 5.7979999
-0.96077263 0.17470688 5.8010001
-0.95108664 0.17467676 5.8000002
-0.8818624 0.17606212 5.8460002
-0.87301248 0.1762127 5.8509998
-0.86355591 0.17624283 5.8520002
-0.85424203 0.17630307 5.8540001
-0.84492147 0.17636329 5.8559999
-0.4204452 0.090862036 3.017
-0.4167324 0.09113308 3.026
-0.41230968 0.091253549 3.03
-0.4077394 0.091343902 3.033
-0.40276086 0.091343902 3.033
-0.3976512 0.091313779 3.0320001
-0.39163825 0.09107285 3.0239999
-0.38501221 0.090681329 3.0109999
-0.37994358 0.090651214 3.01
-0.37462905 0.090560861 3.007
-0.36858672 0.090289809 2.9979999
-0.36293787 0.090109117 2.9920001
-0.35814628 0.090139233 2.993
-0.35335144 0.090169348 2.994
-0.34785506 0.090018764 2.9890001
-0.34260458 0.089928418 2.9860001
-0.33759007 0.089898288 2.9849999
-0.33257893 0.08986818 2.984
-0.32768083 0.08986818 2.984
-0.32343176 0.090048879 2.99
-0.32044137 0.090590976 3.0079999
-0.317287 0.091102965 3.0250001
-0.31376708 0.091524601 3.039
-0.31020117 0.091946229 3.053
-0.30668929 0.092397988 3.0680001
-0.30067012 0.09209682 3.0580001
-0.29294348 0.091253549 3.03
-0.2855939 0.090500638 3.0050001
-0.27907357 0.089988641 2.9879999
-0.27343485 0.089747719 2.98
-0.26809275 0.089597128 2.9749999
-0.26259014 0.089386314 2.9679999
-0.25789198 0.089446545 2.97
-0.25344282 0.089597128 2.9749999
-0.24956211 0.089958534 2.987
-0.24613346 0.090500638 3.0050001
-0.24256544 0.091012619 3.0220001
-0.23854846 0.09137401 3.0339999
-0.23387624 0.091494486 3.0380001
-0.22881417 0.091464363 3.0369999
-0.22331317 0.091253549 3.03
-0.21704252 0.090711452 3.0120001
-0.21160556 0.090500638 3.0050001
-0.20667301 0.090500638 3.0050001
-0.20174046 0.090500638 3.0050001
-0.19687338 0.090530746 3.006
-0.19213074 0.090621099 3.0090001
-0.2577149 0.18256733 6.0619998
-0.24723308 0.1821758 6.0489998
-0.23706861 0.18199512 6.0430002
-0.79074943 0.11634722 4.086
-0.78423429 0.1163757 4.0869999
-0.77866721 0.11654655 4.0929999
-1.0099473 0.16543745 5.8099999
-1.0028211 0.1658361 5.8239999
-0.9944551 0.16603541 5.8309999
-0.98454601 0.16597846 5.829
-0.97414166 0.1658361 5.8239999
-0.96474749 0.16586456 5.8249998
-0.95518607 0.16586456 5.8249998
-0.94465059 0.1656937 5.8189998
-0.88684034 0.16740219 5.8790002
-0.87763786 0.16748762 5.882
-0.86798292 0.16748762 5.882
-0.85832793 0.16748762 5.882
-0.84867287 0.16748762 5.882
-0.42058456 0.085936353 3.0179999
-0.41687012 0.086192623 3.027
-0.41258183 0.086335003 3.0320001
-0.40787381 0.086391941 3.0339999
-0.40289363 0.086391941 3.0339999
-0.39738891 0.086278051 3.03
-0.39124972 0.086021774 3.0209999
-0.38475648 0.085680082 3.0090001
-0.37943867 0.085594662 3.006
-0.3743799 0.085566185 3.0050001
-0.36920145 0.085509233 3.003
-0.36463609 0.085594662 3.006
-0.36030018 0.085737027 3.0109999
-0.35594791 0.085879408 3.016
-0.34878609 0.085338384 2.997
-0.3423751 0.084968217 2.984
-0.33679843 0.084797367 2.9779999
-0.33157584 0.084711939 2.9749999
-0.3265827 0.08468347 2.974
-0.32256642 0.084911264 2.9820001
-0.31958914 0.085423812 3
-0.31781143 0.086278051 3.03
-0.31490278 0.086847536 3.05
-0.3109124 0.087132283 3.0599999
-0.30718911 0.087502457 3.073
-0.30135837 0.087274663 3.0650001
-0.2942003 0.086648218 3.043
-0.28711453 0.086021774 3.0209999
-0.28038114 0.085480765 3.0020001
-0.27416891 0.085082114 2.9879999
-0.2688137 0.084939741 2.983
-0.26320943 0.084711939 2.9749999
-0.2582393 0.08468347 2.974
-0.2536132 0.084768891 2.977
-0.24956211 0.085053638 2.987
-0.24588774 0.085480765 3.0020001
-0.24224435 0.085936353 3.0179999
-0.23823397 0.086278051 3.03
-0.23395321 0.086534321 3.039
-0.22888952 0.086505845 3.0380001
-0.22338688 0.08630652 3.0309999
-0.21733075 0.085879408 3.016
-0.21188723 0.085680082 3.0090001
-0.20660421 0.085537709 3.0039999
-0.20153904 0.085480765 3.0020001
-0.1966769 0.085509233 3.003
-0.19193919 0.085594662 3.006
-0.26921079 0.17360966 6.0970001
-0.25890526 0.17341034 6.0900002
-0.24845926 0.1730971 6.079
-0.23836321 0.17301169 6.0760002
-0.79055589 0.10961086 4.085
-0.78461814 0.1097182 4.0890002
-0.7780965 0.10974503 4.0900002
-0.77289176 0.10995968 4.098
-1.0148145 0.15664826 5.8379998
-1.0081589 0.15710442 5.855
-1.0002537 0.15737274 5.8649998
-0.99062657 0.15737274 5.8649998
-0.97999597 0.15721177 5.8590002
-0.97054428 0.15723859 5.8600001
-0.96125335 0.15729226 5.862
-0.89091337 0.1584729 5.9060001
-0.88241255 0.15868755 5.914
-0.87373793 0.15887536 5.921
-0.41714555 0.081275716 3.029
-0.41230968 0.081302546 3.03
-0.408546 0.081544042 3.039
-0.40329203 0.081490368 3.0369999
-0.3976512 0.081356212 3.0320001
-0.39137924 0.081087887 3.0220001
-0.38462859 0.080712229 3.0079999
-0.36993912 0.080739066 3.0090001
-0.36560649 0.080873229 3.0139999
-0.36125749 0.081007391 3.0190001
-0.35665601 0.081087887 3.0220001
-0.34901887 0.080470741 2.9990001
-0.34191614 0.07996092 2.98
-0.33566746 0.079638928 2.9679999
-0.33034983 0.079531603 2.964
-0.32570422 0.079585262 2.9660001
-0.32191738 0.079853587 2.9760001
-0.31873691 0.080282912 2.9920001
-0.31602836 0.080846399 3.013
-0.31376708 0.081544042 3.039
-0.31030276 0.081946522 3.0539999
-0.30628943 0.082214847 3.0639999
-0.30076841 0.082080692 3.059
-0.2942003 0.081651367 3.043
-0.28739962 0.081141554 3.0239999
-0.28075475 0.08065857 3.006
-0.27453595 0.080282912 2.9920001
-0.26935437 0.080202416 2.9890001
-0.26382878 0.080014586 2.9820001
-0.25910762 0.080068253 2.984
-0.25446513 0.080148749 2.987
-0.25006342 0.080309741 2.993
-0.24605154 0.080604896 3.0039999
-0.2419233 0.080873229 3.0139999
-0.23784083 0.081168383 3.0250001
-0.23310642 0.081248887 3.0280001
-0.22828679 0.081302546 3.03
-0.22294469 0.081168383 3.0250001
-0.21725872 0.080900058 3.0150001
-0.21174638 0.080685399 3.007
-0.20660421 0.080604896 3.0039999
-0.20153904 0.080551244 3.0020001
-0.1965459 0.0805244 3.0009999
-0.19168378 0.080551244 3.0020001
-0.2703588 0.16429555 6.1230001
-0.26005313 0.16413455 6.1170001
-0.24964453 0.16389304 6.1079998
-0.23961857 0.16389304 6.1079998
-0.22963019 0.1639199 6.1090002
-0.79016888 0.10285259 4.0830002
-0.78442621 0.10297853 4.0879998
-0.7782867 0.10305411 4.0910001
-0.77251458 0.10318007 4.0960002
-0.76878256 0.1035831 4.112
-1.0050291 0.14844729 5.8930001
-0.99484921 0.14837173 5.8899999
-0.98384297 0.14817019 5.882
-0.97451913 0.14822057 5.8839998
-0.96568084 0.14834653 5.8889999
-0.87846011 0.14995871 5.9530001
-0.41783413 0.07642781 3.0339999
-0.41326222 0.076503374 3.0369999
-0.40881485 0.076604143 3.0409999
-0.40448719 0.076730095 3.046
-0.39870042 0.076578945 3.04
-0.39241531 0.076327048 3.03
-0.38577944 0.075999565 3.017
-0.37500283 0.075823233 3.01
-0.37067679 0.075949192 3.0150001
-0.36633432 0.076075144 3.02
-0.36197546 0.076201096 3.0250001
-0.35736415 0.076276667 3.0280001
-0.34983349 0.075722478 3.006
-0.3423751 0.075168289 2.984
-0.33611983 0.074865997 2.9719999
-0.33046129 0.074689664 2.9649999
-0.32570422 0.074714854 2.9660001
-0.32191738 0.074966766 2.9760001
-0.31863034 0.075344622 2.9909999
-0.31529412 0.075722478 3.006
-0.31242484 0.076226287 3.026
-0.30918512 0.076654524 3.043
-0.30469003 0.076780483 3.0480001
-0.29949021 0.076730095 3.046
-0.29391026 0.076578945 3.04
-0.28777981 0.076276667 3.0280001
-0.28159532 0.075949192 3.0150001
-0.27554527 0.0756469 3.003
-0.27079624 0.075697288 3.0050001
-0.2654213 0.075571336 3
-0.2604101 0.075546145 2.9990001
-0.25557262 0.075571336 3
-0.25081536 0.075621717 3.0020001
-0.24637917 0.075772852 3.0079999
-0.24168247 0.07584843 3.0109999
-0.23713322 0.075974382 3.016
-0.23233657 0.076024756 3.0179999
-0.22738266 0.076024756 3.0179999
-0.22228138 0.075974382 3.016
-0.2168984 0.075823233 3.01
-0.21139431 0.075621717 3.0020001
-0.20626035 0.075546145 2.9990001
-0.20133765 0.075546145 2.9990001
-0.19634943 0.075520948 2.9979999
-0.19149223 0.075546145 2.9990001
-0.26141354 0.15489605 6.1490002
