ply
format ascii 1.0
comment PCL generated
element vertex 1478
property float x
property float y
property float z
element face 0
element camera 0
property float view_px
property float view_py
property float view_pz
property float x_axisx
property float x_axisy
property float x_axisz
property float y_axisx
property float y_axisy
property float y_axisz
property float z_axisx
property float z_axisy
property float z_axisz
property float focal
property float scalex
property float scaley
property float centerx
property float centery
property int viewportx
property int viewporty
property float k1
property float k2
end_header
-0.16956723 -0.2365118 2.96
-0.16381823 -0.23523337 2.944
-0.15855378 -0.23459415 2.9360001
-0.15342031 -0.23411474 2.9300001
-0.14856014 -0.23403482 2.9289999
-0.14370325 -0.23395492 2.928
-0.51600415 -0.24911913 3.0550001
-0.5114913 -0.24936375 3.0580001
-0.50680298 -0.24952684 3.0599999
-0.5021081 -0.24968994 3.062
-0.49756902 -0.24993455 3.0650001
-0.47195745 -0.25238091 3.095
-0.46717888 -0.25254399 3.0969999
-0.46328896 -0.25319633 3.105
-0.43312687 -0.25344098 3.108
-0.42788753 -0.25335947 3.1070001
-0.42346787 -0.25376716 3.112
-0.38456947 -0.25507188 3.128
-0.37822199 -0.25425643 3.118
-0.37238601 -0.25376716 3.112
-0.32068458 -0.2532779 3.1059999
-0.31517985 -0.25295171 3.102
-0.31038797 -0.25319633 3.105
-0.30558622 -0.25344098 3.108
-0.2245661 -0.24846675 3.0469999
-0.19700436 -0.24528651 3.0079999
-0.19200304 -0.24520496 3.007
-0.187005 -0.24512342 3.006
-0.1814651 -0.24430797 2.9960001
-0.17483841 -0.24194317 2.967
-0.16910893 -0.24072 2.9519999
-0.16353999 -0.23965991 2.9389999
-0.15822975 -0.23892604 2.9300001
-0.15342031 -0.23892604 2.9300001
-0.14886446 -0.23933375 2.9349999
-0.51583523 -0.25405249 3.0539999
-0.51165855 -0.25446841 3.059
-0.50713426 -0.25471798 3.062
-0.50260007 -0.25496754 3.0650001
-0.49789369 -0.2551339 3.0669999
-0.49334142 -0.25538346 3.0699999
-0.47210994 -0.25754631 3.096
-0.46687716 -0.25746316 3.095
-0.43243003 -0.25812861 3.1029999
-0.42761207 -0.258295 3.105
-0.42319572 -0.25871092 3.1099999
-0.38346297 -0.25945961 3.119
-0.37737289 -0.25879413 3.1110001
-0.37178767 -0.25846139 3.1070001
-0.36704174 -0.25871092 3.1099999
-0.32016835 -0.25796226 3.1010001
-0.31507823 -0.25796226 3.1010001
-0.31028801 -0.25821182 3.1040001
-0.30529124 -0.258295 3.105
-0.30058128 -0.25862774 3.109
-0.2253768 -0.25438523 3.0580001
-0.21963666 -0.25355336 3.0480001
-0.18632066 -0.24914446 2.9949999
-0.18055657 -0.24797985 2.9809999
-0.1739545 -0.24556741 2.9519999
-0.16859336 -0.24481875 2.9430001
-0.16331741 -0.24415325 2.9349999
-0.15822975 -0.24373731 2.9300001
-0.15336794 -0.24365413 2.9289999
-0.51583523 -0.25906736 3.0539999
-0.51165855 -0.25949153 3.059
-0.50729984 -0.25983086 3.063
-0.50276405 -0.26008531 3.066
-0.49805602 -0.26025501 3.0680001
-0.49366286 -0.26059431 3.072
-0.48973373 -0.26118812 3.079
-0.43752342 -0.26322401 3.1029999
-0.4322907 -0.26313916 3.102
-0.4273366 -0.26322401 3.1029999
-0.42278755 -0.26356331 3.1070001
-0.41862857 -0.26415712 3.1140001
-0.3835859 -0.26466608 3.1199999
-0.37761545 -0.26407227 3.1129999
-0.37226632 -0.26390263 3.1110001
-0.36739579 -0.26407227 3.1129999
-0.32609761 -0.26373297 3.109
-0.32058135 -0.26339367 3.105
-0.31538305 -0.26330885 3.1040001
-0.3104879 -0.26347849 3.1059999
-0.30529124 -0.26339367 3.105
-0.30038792 -0.26356331 3.1070001
-0.22508201 -0.25906736 3.0539999
-0.19661142 -0.25465629 3.0020001
-0.19149223 -0.2544018 2.9990001
-0.18600962 -0.25363836 2.99
-0.17995086 -0.25202659 2.971
-0.17330629 -0.24948171 2.941
-0.16790593 -0.24863344 2.931
-0.16298354 -0.24846376 2.9289999
-0.15812175 -0.24837895 2.928
-0.51583523 -0.26408228 3.0539999
-0.5118258 -0.26460111 3.0599999
-0.50746548 -0.264947 3.0639999
-0.50292802 -0.26520643 3.0669999
-0.49821839 -0.26537937 3.069
-0.49382353 -0.26572523 3.073
-0.44304478 -0.26857877 3.1059999
-0.43752342 -0.26831937 3.1029999
-0.4322907 -0.26823291 3.102
-0.42747435 -0.26840585 3.1040001
-0.42278755 -0.26866528 3.1070001
-0.4183597 -0.26909763 3.112
-0.41431382 -0.26978937 3.1199999
-0.38346297 -0.26970291 3.119
-0.37761545 -0.26918408 3.1129999
-0.37238601 -0.26909763 3.112
-0.36763185 -0.26935703 3.115
-0.32641226 -0.26909763 3.112
-0.32089111 -0.26875174 3.108
-0.31568789 -0.26866528 3.1070001
-0.31068784 -0.26875174 3.108
-0.30529124 -0.26849231 3.105
-0.3004846 -0.26875174 3.108
-0.23077306 -0.26486051 3.063
-0.22522941 -0.26425526 3.056
-0.19648042 -0.25941285 3
-0.19123681 -0.25898048 2.9949999
-0.18569855 -0.2581158 2.9849999
-0.17934518 -0.25604048 2.961
-0.17289381 -0.25370577 2.934
-0.16773407 -0.25318697 2.928
-0.16237146 -0.25232226 2.918
-0.15785173 -0.25275463 2.9230001
-0.5118258 -0.26962587 3.0599999
-0.50763112 -0.27006647 3.0650001
-0.50309199 -0.27033082 3.0680001
-0.49821839 -0.27041891 3.069
-0.49382353 -0.27077135 3.073
-0.44290218 -0.27359098 3.105
-0.43738246 -0.27332664 3.102
-0.43243003 -0.27341473 3.1029999
-0.42761207 -0.27359098 3.105
-0.42278755 -0.2737672 3.1070001
-0.41822529 -0.27411965 3.1110001
-0.41391549 -0.27464834 3.1170001
-0.40932369 -0.27500078 3.1210001
-0.33194655 -0.27456021 3.1159999
-0.32651716 -0.27429587 3.1129999
-0.32120082 -0.27411965 3.1110001
-0.31578946 -0.27385533 3.108
-0.31068784 -0.27385533 3.108
-0.30529124 -0.27359098 3.105
-0.30029124 -0.27367908 3.1059999
-0.23587781 -0.26997834 3.0639999
-0.23039636 -0.26944968 3.0580001
-0.22486089 -0.26883286 3.0510001
-0.19576 -0.26336986 2.9890001
-0.19040674 -0.26275307 2.9820001
-0.18457878 -0.26143137 2.967
-0.17819436 -0.25922853 2.9419999
-0.17224559 -0.25755441 2.9230001
-0.16739035 -0.25746629 2.9219999
-0.16220452 -0.2568495 2.915
-0.1574737 -0.25693759 2.9159999
-0.55252057 -0.25409672 2.8310001
-0.54748654 -0.25391722 2.829
-0.54245913 -0.25373769 2.8269999
-0.53705782 -0.25337869 2.823
-0.51199311 -0.2747404 3.0610001
-0.50763112 -0.27509943 3.0650001
-0.50341994 -0.27554819 3.0699999
-0.49854305 -0.27563798 3.0710001
-0.49366286 -0.27572772 3.072
-0.44290218 -0.27868962 3.105
-0.43738246 -0.27842036 3.102
-0.43256941 -0.27859989 3.1040001
-0.42774978 -0.27877939 3.1059999
-0.42292359 -0.27895889 3.108
-0.41795641 -0.27904865 3.109
-0.41338429 -0.27940768 3.1129999
-0.40866792 -0.27967691 3.1159999
-0.34327421 -0.28057447 3.1259999
-0.33749399 -0.28003594 3.1199999
-0.33184004 -0.27958718 3.115
-0.32662204 -0.27949744 3.1140001
-0.32130408 -0.27931792 3.112
-0.31609428 -0.27922818 3.1110001
-0.3107878 -0.27904865 3.109
-0.30558622 -0.27895889 3.108
-0.30029124 -0.27877939 3.1059999
-0.23564686 -0.2747404 3.0610001
-0.23017034 -0.27420187 3.0550001
-0.18944895 -0.26630342 2.967
-0.18383224 -0.26522636 2.9549999
-0.17704356 -0.2623542 2.9230001
-0.17159739 -0.2613669 2.9119999
-0.16693206 -0.2615464 2.914
-0.16198194 -0.26127714 2.911
-0.15725769 -0.2613669 2.9119999
-0.55213022 -0.25856265 2.829
-0.54768008 -0.25865403 2.8299999
-0.54361039 -0.25892827 2.8329999
-0.53838944 -0.25865403 2.8299999
-0.51216036 -0.2798582 3.062
-0.50845921 -0.28058937 3.0699999
-0.50391191 -0.28086358 3.073
-0.49870539 -0.28077218 3.072
-0.49382353 -0.28086358 3.073
-0.44275957 -0.28369689 3.1040001
-0.43752342 -0.28360549 3.1029999
-0.43243003 -0.28360549 3.1029999
-0.42761207 -0.28378829 3.105
-0.42292359 -0.28406247 3.108
-0.41782197 -0.28406247 3.108
-0.41298592 -0.28424525 3.1099999
-0.40814331 -0.28442806 3.112
-0.40329418 -0.28461087 3.1140001
-0.34338403 -0.28579903 3.1270001
-0.33792672 -0.28552485 3.1240001
-0.3323727 -0.28515923 3.1199999
-0.32693672 -0.28488508 3.1170001
-0.32182032 -0.28488508 3.1170001
-0.31660232 -0.28479367 3.1159999
-0.31128764 -0.28461087 3.1140001
-0.30578285 -0.28424525 3.1099999
-0.3004846 -0.28406247 3.108
-0.23564686 -0.27976683 3.0610001
-0.23001966 -0.27903563 3.053
-0.18308572 -0.26898196 2.9430001
-0.17710413 -0.26724538 2.924
-0.17130277 -0.26569167 2.9070001
-0.16658835 -0.26578304 2.908
-0.16175936 -0.26569167 2.9070001
-0.15714969 -0.26596585 2.9100001
-0.54806715 -0.26348722 2.832
-0.54361039 -0.26358026 2.8329999
-0.53896022 -0.26358026 2.8329999
-0.53374422 -0.26330113 2.8299999
-0.51299667 -0.28535143 3.0669999
-0.50945294 -0.28618881 3.076
-0.50473177 -0.28637487 3.0780001
-0.49935475 -0.28618881 3.076
-0.49414498 -0.28609577 3.075
-0.44304478 -0.28897998 3.1059999
-0.43794647 -0.28897998 3.1059999
-0.43312687 -0.28916606 3.108
-0.42816293 -0.28925911 3.109
-0.42333183 -0.28944519 3.1110001
-0.41822529 -0.28944519 3.1110001
-0.41298592 -0.28935212 3.1099999
-0.40788102 -0.28935212 3.1099999
-0.40316463 -0.28963125 3.1129999
-0.39869416 -0.29009643 3.118
-0.34294477 -0.29056165 3.1229999
-0.3376022 -0.29037556 3.1210001
-0.33247924 -0.29037556 3.1210001
-0.32693672 -0.29000345 3.1170001
-0.32192358 -0.29009643 3.118
-0.31680551 -0.29009643 3.118
-0.31148756 -0.28991038 3.1159999
-0.30617616 -0.28972432 3.1140001
-0.30077463 -0.28944519 3.1110001
-0.23541591 -0.2845141 3.0580001
-0.18140604 -0.27130252 2.9159999
-0.17607445 -0.2704652 2.9070001
-0.17094919 -0.26990694 2.901
-0.16618735 -0.26990694 2.901
-0.16148114 -0.26999995 2.902
-0.54476178 -0.26880035 2.839
-0.53991145 -0.2687057 2.8380001
-0.53487581 -0.2685163 2.836
-0.53003371 -0.26842162 2.835
-0.51193726 -0.29266006 3.0910001
-0.50669956 -0.29256538 3.0899999
-0.50114048 -0.29228133 3.0869999
-0.4954305 -0.2919026 3.0829999
-0.44375801 -0.29455367 3.1110001
-0.43907446 -0.29483774 3.1140001
-0.43368429 -0.29464838 3.112
-0.42857611 -0.29464838 3.112
-0.42360398 -0.29474303 3.1129999
-0.41862857 -0.29483774 3.1140001
-0.41351712 -0.29483774 3.1140001
-0.40853679 -0.2949324 3.115
-0.40342367 -0.2949324 3.115
-0.39907774 -0.29550052 3.1210001
-0.34349385 -0.29616326 3.128
-0.33803487 -0.29587922 3.125
-0.33279881 -0.29578456 3.1240001
-0.32756603 -0.29568985 3.1229999
-0.32233652 -0.2955952 3.122
-0.31721196 -0.2955952 3.122
-0.3119874 -0.29550052 3.1210001
-0.30676609 -0.29540581 3.1199999
-0.30125803 -0.29502711 3.1159999
-0.24137896 -0.29067177 3.0699999
-0.18078393 -0.27514398 2.9059999
-0.17583217 -0.27485996 2.9030001
-0.17094919 -0.2746706 2.901
-0.1663592 -0.27495465 2.904
-0.54572117 -0.27394384 2.8440001
-0.54105294 -0.27394384 2.8440001
-0.5360074 -0.2737512 2.842
-0.53096849 -0.27355853 2.8399999
-0.49353835 -0.26594898 2.7609999
-0.48812079 -0.26546738 2.756
-0.51161897 -0.30052909 3.1199999
-0.50503659 -0.2996622 3.1110001
-0.49928728 -0.29927692 3.1070001
-0.4460403 -0.30120337 3.1270001
-0.44133049 -0.30149236 3.1300001
-0.43549597 -0.30101073 3.125
-0.43009096 -0.30081806 3.1229999
-0.4246926 -0.30062544 3.1210001
-0.41943514 -0.30052909 3.1199999
-0.41431382 -0.30052909 3.1199999
-0.40971714 -0.30091441 3.1240001
-0.40458927 -0.30091441 3.1240001
-0.39971709 -0.30110705 3.1259999
-0.39559576 -0.30187765 3.1340001
-0.34415272 -0.30187765 3.1340001
-0.33846757 -0.30139601 3.1289999
-0.33322495 -0.30129969 3.128
-0.32798561 -0.30120337 3.1270001
-0.32295603 -0.30129969 3.128
-0.31772 -0.30120337 3.1270001
-0.31248719 -0.30110705 3.1259999
-0.30755267 -0.30129969 3.128
-0.30222484 -0.30110705 3.1259999
-0.18453236 -0.27837473 2.8900001
-0.18009962 -0.27885634 2.895
-0.17546876 -0.27904898 2.8970001
-0.1707724 -0.2791453 2.898
-0.5464887 -0.2790058 2.848
-0.54200411 -0.27910373 2.849
-0.53713906 -0.2790058 2.848
-0.48758945 -0.26969907 2.753
-0.4809649 -0.26852345 2.7409999
-0.51234186 -0.30917916 3.1559999
-0.4498916 -0.30898324 3.154
-0.44485545 -0.3090812 3.155
-0.43870118 -0.30839542 3.148
-0.43243217 -0.3076117 3.1400001
-0.42714193 -0.30751374 3.1389999
-0.42145169 -0.30712187 3.135
-0.41577458 -0.30673 3.131
-0.41089749 -0.30692592 3.1329999
-0.40601388 -0.30712187 3.135
-0.40099576 -0.30721983 3.1359999
-0.39660555 -0.30780762 3.142
-0.39169729 -0.30800357 3.1440001
-0.33954927 -0.30751374 3.1389999
-0.33429024 -0.30741578 3.138
-0.32945403 -0.30770969 3.141
-0.324195 -0.3076117 3.1400001
-0.31904083 -0.3076117 3.1400001
-0.3138867 -0.3076117 3.1400001
-0.30902749 -0.30790558 3.1429999
-0.18414924 -0.28253254 2.8840001
-0.17991298 -0.28331625 2.892
-0.17534761 -0.28361017 2.895
-0.1544566 -0.31897572 3.256
-0.13842292 -0.31897572 3.256
-0.54295534 -0.28428006 2.8540001
-0.53864783 -0.28447929 2.8559999
-0.48847499 -0.27471775 2.7579999
-0.48184228 -0.27352247 2.7460001
-0.52736115 -0.32033804 3.2160001
-0.52013415 -0.31914273 3.204
-0.45516935 -0.31784782 3.191
-0.44908547 -0.31725016 3.1849999
-0.44260326 -0.31635374 3.1760001
-0.43587512 -0.31525803 3.165
-0.42972741 -0.31456077 3.158
-0.42467812 -0.31466037 3.1589999
-0.41789928 -0.31346512 3.1470001
-0.41247132 -0.31326586 3.145
-0.40730894 -0.31326586 3.145
-0.40240237 -0.31346512 3.1470001
-0.39748916 -0.31366432 3.1489999
-0.39269397 -0.31396312 3.152
-0.34117186 -0.31416234 3.154
-0.33620775 -0.31436154 3.1559999
-0.33176157 -0.31505883 3.1630001
-0.32656968 -0.31505883 3.1630001
-0.32137778 -0.31505883 3.1630001
-0.31618586 -0.31505883 3.1630001
-0.31158388 -0.31565645 3.1689999
-0.17972635 -0.28776634 2.8889999
-0.16433419 -0.32272857 3.24
-0.15931037 -0.32332626 3.2460001
-0.15426685 -0.32392389 3.2520001
-0.14929523 -0.32472074 3.26
-0.1439441 -0.32472074 3.26
-0.13859296 -0.32472074 3.26
-0.54276508 -0.2888653 2.8529999
-0.53864783 -0.28916904 2.8559999
-0.53414685 -0.28927031 2.8570001
-0.48900634 -0.27955034 2.7609999
-0.48184228 -0.27803162 2.7460001
-0.52900094 -0.32663143 3.2260001
-0.52256924 -0.3259227 3.2190001
-0.45730898 -0.32460645 3.2060001
-0.45063651 -0.32359394 3.1960001
-0.44511169 -0.32339144 3.194
-0.43876719 -0.32258147 3.1860001
-0.43272105 -0.32197395 3.1800001
-0.42736682 -0.32187268 3.1789999
-0.42068791 -0.32075894 3.168
-0.4154878 -0.32075894 3.168
-0.40964016 -0.32025272 3.1630001
-0.40406466 -0.31994897 3.1600001
-0.39887765 -0.31994897 3.1600001
-0.39356607 -0.3198477 3.1589999
-0.3424699 -0.32055643 3.1659999
-0.33780572 -0.32106271 3.171
-0.33302024 -0.3214677 3.175
-0.32791188 -0.32156897 3.1760001
-0.32290184 -0.32177144 3.178
-0.31838503 -0.32248017 3.1849999
-0.31364867 -0.32298645 3.1900001
-0.16423275 -0.32784644 3.2379999
-0.15901589 -0.32804894 3.24
-0.15388735 -0.32845393 3.244
-0.14897466 -0.32936519 3.253
-0.14376748 -0.32966894 3.256
-0.13850795 -0.32987142 3.2579999
-0.67093295 -0.33141431 3.221
-0.66585249 -0.33151722 3.2219999
-0.65912861 -0.33079696 3.2149999
-0.65446144 -0.33110562 3.2179999
-0.64998621 -0.33151722 3.2219999
-0.54238456 -0.29334441 2.8510001
-0.538082 -0.29355016 2.8529999
-0.53358597 -0.29365307 2.8540001
-0.53080469 -0.33306059 3.237
-0.5245173 -0.33244324 3.2309999
-0.46016178 -0.33192879 3.2260001
-0.45218748 -0.32997385 3.207
-0.44664463 -0.32976806 3.2049999
-0.44069523 -0.32925361 3.2
-0.4346261 -0.32863626 3.194
-0.42898002 -0.3283276 3.191
-0.42294541 -0.32771021 3.1849999
-0.41771737 -0.32771021 3.1849999
-0.41210082 -0.32740152 3.1819999
-0.40623841 -0.32688707 3.177
-0.40077105 -0.32668129 3.175
-0.39506111 -0.32626975 3.171
-0.34452513 -0.32771021 3.1849999
-0.3391906 -0.32760733 3.184
-0.33448866 -0.32812178 3.1889999
-0.32966709 -0.32853338 3.1930001
-0.32493395 -0.32904783 3.198
-0.32058427 -0.32997385 3.207
-0.26128641 -0.32822469 3.1900001
-0.18382996 -0.29622534 2.8789999
-0.16954777 -0.33316347 3.2379999
-0.16428347 -0.33326638 3.2390001
-0.15896681 -0.33326638 3.2390001
-0.1536976 -0.33336928 3.24
-0.14883725 -0.33439818 3.25
-0.143635 -0.33470684 3.253
-0.13829538 -0.33470684 3.253
-0.66947484 -0.33597174 3.214
-0.66523254 -0.33649442 3.2190001
-0.65912861 -0.33607626 3.2149999
-0.65466487 -0.33649442 3.2190001
-0.65018797 -0.33691254 3.223
-0.54162365 -0.29760781 2.8469999
-0.53713906 -0.29771236 2.848
-0.53283805 -0.29792139 2.8499999
-0.53162462 -0.33889869 3.2420001
-0.5254913 -0.33837599 3.237
-0.45373845 -0.33638984 3.2179999
-0.44748077 -0.3356581 3.211
-0.4415215 -0.33513546 3.2060001
-0.43557861 -0.33461279 3.201
-0.43005547 -0.33440369 3.1989999
-0.42400777 -0.3337765 3.1930001
-0.41889775 -0.33388105 3.194
-0.41326642 -0.33356744 3.191
-0.40713346 -0.3328357 3.184
-0.40152842 -0.33252209 3.181
-0.39605778 -0.33231303 3.1789999
-0.34549868 -0.33388105 3.194
-0.33972323 -0.33335838 3.1889999
-0.33501312 -0.33388105 3.194
-0.33049303 -0.33461279 3.201
-0.3258484 -0.33524001 3.207
-0.26185977 -0.33419466 3.197
-0.256291 -0.3337765 3.1930001
-0.18357457 -0.30053475 2.875
-0.16980956 -0.33900321 3.243
-0.16443564 -0.33889869 3.2420001
-0.15906498 -0.33879414 3.2409999
-0.1536976 -0.3386896 3.24
-0.14869986 -0.33942133 3.247
-0.14359087 -0.33994401 3.2520001
-0.13825287 -0.33994401 3.2520001
-0.6669752 -0.33997527 3.2019999
-0.66419923 -0.34124938 3.214
-0.65871865 -0.34114319 3.2130001
-0.65425813 -0.3415679 3.217
-0.64998621 -0.34209877 3.2219999
-0.53638464 -0.30196428 2.8440001
-0.53171635 -0.30196428 2.8440001
-0.52778935 -0.302389 2.848
-0.53162462 -0.34422231 3.2420001
-0.52532899 -0.34358525 3.2360001
-0.44803822 -0.34135553 3.2149999
-0.44193467 -0.34071851 3.2090001
-0.43612292 -0.34029377 3.2049999
-0.43072766 -0.34018761 3.204
-0.42453891 -0.3394444 3.197
-0.41916007 -0.33933821 3.1960001
-0.41365495 -0.33912584 3.194
-0.40764496 -0.33848879 3.188
-0.40165463 -0.33785173 3.1819999
-0.39655614 -0.33795795 3.1830001
-0.34614772 -0.3397629 3.2
-0.34004283 -0.33891347 3.1919999
-0.33532777 -0.3394444 3.197
-0.3308028 -0.34018761 3.204
-0.32645804 -0.34114319 3.2130001
-0.2620236 -0.33965671 3.1989999
-0.25661206 -0.3394444 3.197
-0.19539368 -0.30164579 2.8410001
-0.17518678 -0.34443465 3.244
-0.16980956 -0.34432846 3.243
-0.16453706 -0.34443465 3.244
-0.15911405 -0.34422231 3.2420001
-0.1536976 -0.34400994 3.24
-0.14851668 -0.34432846 3.243
-0.1434584 -0.34496555 3.2490001
-0.1380828 -0.34485936 3.2479999
-0.66614205 -0.34480193 3.198
-0.66275263 -0.3457723 3.207
-0.65789855 -0.34598792 3.2090001
-0.65344465 -0.34641919 3.2130001
-0.64917928 -0.34695828 3.2179999
-0.53581882 -0.30631089 2.8410001
-0.53115547 -0.30631089 2.8410001
-0.52667743 -0.30641872 2.842
-0.5231145 -0.30706564 2.848
-0.53162462 -0.34954593 3.2420001
-0.52516663 -0.34879118 3.2349999
-0.448735 -0.3471739 3.22
-0.44234779 -0.34631136 3.2119999
-0.43666723 -0.34598792 3.2090001
-0.43126541 -0.34588009 3.2079999
-0.42520285 -0.3452332 3.2019999
-0.4192912 -0.34469411 3.197
-0.41365495 -0.34437066 3.194
-0.40777281 -0.34383154 3.1889999
-0.40190712 -0.34329247 3.184
-0.3469049 -0.3457723 3.207
-0.34057549 -0.34469411 3.197
-0.33564243 -0.34501755 3.2
-0.3310093 -0.34566447 3.2060001
-0.32686445 -0.34685045 3.217
-0.32268351 -0.34803644 3.2279999
-0.2620236 -0.34490973 3.1989999
-0.25661206 -0.34469411 3.197
-0.19546245 -0.30641872 2.842
-0.19200587 -0.30835944 2.8599999
-0.18028907 -0.34933028 3.24
-0.17491679 -0.34922248 3.2390001
-0.16965248 -0.34933028 3.24
-0.1643849 -0.34943807 3.2409999
-0.15906498 -0.34943807 3.2409999
-0.15365016 -0.34922248 3.2390001
-0.1483793 -0.34933028 3.24
-0.14328177 -0.34986934 3.2449999
-0.13787025 -0.34965375 3.243
-0.6642673 -0.34906814 3.1889999
-0.66089272 -0.35005328 3.198
-0.65646338 -0.35049111 3.2019999
-0.65222436 -0.35103846 3.207
-0.64817065 -0.35169518 3.2130001
-0.64389712 -0.3522425 3.2179999
-0.53449857 -0.31020984 2.8340001
-0.53022063 -0.31042874 2.836
-0.52538019 -0.31031927 2.835
-0.52109396 -0.3105382 2.8369999
-0.52484196 -0.3538844 3.233
-0.44901374 -0.35268033 3.2219999
-0.44289866 -0.35202357 3.2160001
-0.43721154 -0.35169518 3.2130001
-0.43193761 -0.35169518 3.2130001
-0.42573407 -0.35092896 3.2060001
-0.41981581 -0.35038167 3.201
-0.413914 -0.34983438 3.1960001
-0.40802857 -0.34928706 3.191
-0.34722942 -0.35136682 3.21
-0.34057549 -0.34994385 3.197
-0.33553752 -0.35016274 3.1989999
-0.3308028 -0.35071006 3.204
-0.32655963 -0.35180467 3.214
-0.32308337 -0.35377496 3.2320001
-0.31954801 -0.35574523 3.25
-0.26235121 -0.3506006 3.2030001
-0.25725418 -0.3508195 3.2049999
-0.19942328 -0.30999091 2.832
-0.19587511 -0.31174228 2.848
-0.19220728 -0.31338418 2.8629999
-0.18001086 -0.35410333 3.2349999
-0.17475477 -0.35421279 3.2360001
-0.16954777 -0.35443169 3.2379999
-0.16428347 -0.35454118 3.2390001
-0.15896681 -0.35454118 3.2390001
-0.15355529 -0.35432222 3.237
-0.14819612 -0.35421279 3.2360001
-0.14310516 -0.35476005 3.2409999
-0.13765767 -0.35443169 3.2379999
-0.65944606 -0.35452694 3.191
-0.6554383 -0.35519356 3.197
-0.65202105 -0.35619348 3.2060001
-0.64796889 -0.3568601 3.2119999
-0.6442973 -0.3577489 3.22
-0.53374422 -0.31441906 2.8299999
-0.52947283 -0.3146413 2.832
-0.5248242 -0.3146413 2.832
-0.52035934 -0.31475237 2.8329999
-0.44372496 -0.3579711 3.2219999
-0.43775585 -0.35741562 3.217
-0.43193761 -0.3569712 3.2130001
-0.42613241 -0.35652679 3.2090001
-0.41994694 -0.35574904 3.2019999
-0.4143025 -0.35541576 3.1989999
-0.40866792 -0.35508248 3.1960001
-0.34153426 -0.35619348 3.2060001
-0.33585221 -0.35574904 3.2019999
-0.3311125 -0.35630459 3.207
-0.32706767 -0.35763782 3.2190001
-0.32368314 -0.35974875 3.2379999
-0.31964633 -0.36119306 3.2509999
-0.26802653 -0.35641566 3.2079999
-0.26251504 -0.35608238 3.2049999
-0.25749499 -0.35641566 3.2079999
-0.19984579 -0.31530792 2.8380001
-0.19628778 -0.31708553 2.8540001
-0.18446165 -0.3577489 3.22
-0.17967699 -0.35874885 3.2290001
-0.17432272 -0.35863772 3.2279999
-0.16928595 -0.35919324 3.233
-0.16413131 -0.35952654 3.2360001
-0.15896681 -0.35985985 3.2390001
-0.15360272 -0.35974875 3.2379999
-0.14810452 -0.35930434 3.234
-0.14301684 -0.35985985 3.2390001
-0.13753015 -0.35941544 3.2349999
-0.65019065 -0.36044329 3.197
-0.64716196 -0.36168349 3.2079999
-0.64389712 -0.36281091 3.2179999
-0.52891189 -0.31895339 2.829
-0.52426821 -0.31895339 2.829
-0.51980823 -0.31906617 2.8299999
-0.43857232 -0.36337465 3.223
-0.43260977 -0.36281091 3.2179999
-0.42666361 -0.3622472 3.2130001
-0.42034042 -0.36134523 3.2049999
-0.41456151 -0.36089426 3.201
-0.40917936 -0.36078152 3.2
-0.33616689 -0.36134523 3.2049999
-0.3315255 -0.36202171 3.211
-0.32777891 -0.36371288 3.2260001
-0.32448289 -0.36596778 3.2460001
-0.26852784 -0.36235994 3.214
-0.26292458 -0.36190897 3.21
-0.20378363 -0.31884068 2.8280001
-0.20012745 -0.3204191 2.842
-0.19642532 -0.32199749 2.8559999
-0.18440437 -0.36292368 3.2190001
-0.17951006 -0.36371288 3.2260001
-0.17394471 -0.36314917 3.221
-0.16897178 -0.36382562 3.227
-0.16377626 -0.3640511 3.2290001
-0.15867235 -0.3645021 3.233
-0.15341297 -0.36461481 3.234
-0.14792134 -0.36416385 3.23
-0.14288439 -0.36484033 3.2360001
-0.13753015 -0.36472756 3.2349999
-0.64453942 -0.36546424 3.1949999
-0.52853799 -0.32337007 2.8269999
-0.52408296 -0.32348448 2.8280001
-0.51944089 -0.32348448 2.8280001
-0.51498091 -0.32359886 2.829
-0.47750866 -0.31421918 2.747
-0.47127768 -0.3130753 2.737
-0.42812431 -0.36878145 3.224
-0.42138961 -0.36752322 3.2130001
-0.41546807 -0.36695126 3.2079999
-0.3369011 -0.36740881 3.2119999
-0.3315255 -0.36729443 3.211
-0.32757568 -0.36878145 3.224
-0.2689456 -0.36820951 3.2190001
-0.20407186 -0.32394201 2.832
-0.20033871 -0.32542905 2.845
-0.19663166 -0.32703045 2.859
-0.18411793 -0.3676376 3.214
-0.17912054 -0.36820951 3.2190001
-0.17356668 -0.3676376 3.214
-0.16337049 -0.36843827 3.221
-0.15823062 -0.36878145 3.224
-0.15303347 -0.36901024 3.2260001
-0.14760077 -0.36866707 3.223
-0.14239867 -0.36889583 3.2249999
-0.13719003 -0.36912459 3.227
-0.52853799 -0.32801223 2.8269999
-0.52408296 -0.32812828 2.8280001
-0.5188899 -0.32778019 2.825
-0.51425278 -0.32778019 2.825
-0.50853336 -0.32708403 2.819
-0.50104606 -0.32522756 2.803
-0.49148592 -0.32197878 2.7750001
-0.48429883 -0.32023832 2.76
-0.47803015 -0.31907806 2.75
-0.47248304 -0.31838188 2.744
-0.46610287 -0.31710559 2.733
-0.47545746 -0.37384343 3.2219999
-0.46943912 -0.37326333 3.217
-0.38191226 -0.37546787 3.2360001
-0.37590227 -0.37477168 3.23
-0.37048563 -0.37465566 3.2290001
-0.33711085 -0.37291521 3.214
-0.33204177 -0.37314728 3.2160001
-0.32757568 -0.3740755 3.224
-0.26919621 -0.37384343 3.2219999
-0.20479245 -0.32975268 2.842
-0.20062037 -0.33056489 2.849
-0.19690675 -0.33218926 2.8629999
-0.18400335 -0.37268317 3.2119999
-0.17884232 -0.37291521 3.214
-0.15793616 -0.37337932 3.2179999
-0.15270141 -0.3734954 3.2190001
-0.52816409 -0.33241907 2.825
-0.52389759 -0.33265439 2.8269999
-0.5185225 -0.33218372 2.823
-0.51352465 -0.3319484 2.8210001
-0.5076313 -0.33112466 2.8139999
-0.50050974 -0.32947728 2.8
-0.49201727 -0.32688856 2.7780001
-0.48517621 -0.32535887 2.7650001
-0.47907311 -0.32429981 2.756
-0.4740327 -0.3239468 2.753
-0.46797886 -0.32288775 2.744
-0.46127898 -0.32135805 2.7309999
-0.47427696 -0.37819287 3.214
-0.46783394 -0.37725151 3.2060001
-0.46242714 -0.37713382 3.2049999
-0.38674533 -0.38031095 3.2320001
-0.38073206 -0.37960494 3.2260001
-0.37473845 -0.37889889 3.22
-0.37002668 -0.37948725 3.2249999
-0.36495921 -0.3797226 3.227
-0.26978108 -0.37995794 3.2290001
-0.2052248 -0.33512548 2.848
-0.20139496 -0.33653751 2.8599999
-0.52371228 -0.33717725 2.826
-0.5188899 -0.33705795 2.825
-0.51352465 -0.33658069 2.8210001
-0.5076313 -0.33574548 2.8139999
-0.50068855 -0.33419445 2.8010001
-0.49290282 -0.33204681 2.783
-0.48640448 -0.33073437 2.7720001
-0.4801161 -0.32954127 2.7620001
-0.47541022 -0.32942191 2.7609999
-0.46866107 -0.32787085 2.7479999
-0.46195456 -0.32631978 2.7349999
-0.45763248 -0.32643911 2.7360001
-0.48029864 -0.38406709 3.2190001
-0.47412938 -0.38335121 3.2130001
-0.4672502 -0.38203877 3.2019999
-0.46112862 -0.38132289 3.1960001
-0.38518974 -0.38406709 3.2190001
-0.37955189 -0.38370916 3.2160001
-0.37404019 -0.38347051 3.214
-0.36887932 -0.3835898 3.2149999
-0.36416754 -0.38418639 3.22
-0.35988516 -0.38526019 3.2290001
-0.27011526 -0.38573745 3.233
-0.2052248 -0.33980212 2.848
-0.20139496 -0.34123385 2.8599999
-0.5185225 -0.34145489 2.823
-0.51316059 -0.34097108 2.819
-0.50745094 -0.34024534 2.813
-0.50068855 -0.3387939 2.8010001
-0.49343416 -0.33697957 2.786
-0.48780826 -0.33625385 2.78
-0.48168051 -0.33516526 2.7709999
-0.47678772 -0.33492336 2.7690001
-0.4713898 -0.33431858 2.7639999
-0.46415034 -0.3323833 2.7479999
-0.46014145 -0.33274615 2.7509999
-0.4498291 -0.32851279 2.7160001
-0.48603496 -0.38971579 3.2219999
-0.47925416 -0.38850623 3.2119999
-0.47339156 -0.38802242 3.2079999
-0.46681243 -0.38693383 3.1989999
-0.46069577 -0.38620812 3.1930001
-0.45488402 -0.38572428 3.1889999
-0.39035228 -0.38923198 3.2179999
-0.3844718 -0.38862723 3.2130001
-0.37896177 -0.38838527 3.211
-0.3735747 -0.38826433 3.21
-0.36842036 -0.38838527 3.211
-0.36337587 -0.38862723 3.2130001
-0.35865918 -0.38923198 3.2179999
-0.2052248 -0.34447879 2.848
-0.20202872 -0.34701881 2.869
-0.64009535 -0.39218685 3.1989999
-0.63543969 -0.39255461 3.2019999
-0.63018382 -0.39255461 3.2019999
-0.62395203 -0.39194164 3.197
-0.61889786 -0.39206424 3.198
-0.50709015 -0.34461933 2.8110001
-0.50086725 -0.34351596 2.802
-0.49414256 -0.3420448 2.79
-0.48973837 -0.34216741 2.7909999
-0.45115405 -0.33395341 2.724
-0.4848282 -0.3940258 3.214
-0.47835895 -0.39304504 3.2060001
-0.47265375 -0.39267725 3.2030001
-0.46652061 -0.39194164 3.197
-0.46026292 -0.39108348 3.1900001
-0.45459881 -0.39071569 3.187
-0.44866249 -0.39010271 3.1819999
-0.38974577 -0.39390323 3.2130001
-0.38363418 -0.39304504 3.2060001
-0.37848967 -0.39316761 3.207
-0.37310919 -0.39304504 3.2060001
-0.3678467 -0.39304504 3.2060001
-0.3626973 -0.39316761 3.207
-0.35765609 -0.39341283 3.2090001
-0.15151547 -0.39157388 3.194
-0.14608949 -0.39108348 3.1900001
-0.14050004 -0.39010271 3.1819999
-0.63689393 -0.39545205 3.1830001
-0.63206607 -0.39570051 3.1849999
-0.62683803 -0.39570051 3.1849999
-0.62161005 -0.39570051 3.1849999
-0.6165756 -0.39582476 3.1860001
-0.61115402 -0.39570051 3.1849999
-0.48392308 -0.39855799 3.2079999
-0.47776207 -0.39781258 3.2019999
-0.47221103 -0.39756408 3.2
-0.46608284 -0.39681867 3.194
-0.4604072 -0.39644593 3.191
-0.45459881 -0.39594901 3.187
-0.39526561 -0.39942768 3.2149999
-0.38926056 -0.39868227 3.2090001
-0.38339481 -0.39806107 3.204
-0.37789956 -0.39781258 3.2019999
-0.37264365 -0.39781258 3.2019999
-0.367273 -0.39768833 3.201
-0.3621318 -0.39781258 3.2019999
-0.35687587 -0.39781258 3.2019999
-0.18898106 -0.39843377 3.207
-0.16195033 -0.39669445 3.1930001
-0.15656194 -0.39632171 3.1900001
-0.15132572 -0.39632171 3.1900001
-0.1459979 -0.39607322 3.188
-0.14050004 -0.39532778 3.1819999
-0.13561705 -0.39632171 3.1900001
-0.64070648 -0.39979762 3.1760001
-0.6358934 -0.40004936 3.178
-0.63107383 -0.40030116 3.1800001
-0.62585402 -0.40030116 3.1800001
-0.62024385 -0.40004936 3.178
-0.61502731 -0.40004936 3.178
-0.61038649 -0.40042701 3.181
-0.60478455 -0.40017524 3.1789999
-0.48934141 -0.4039517 3.2090001
-0.48301801 -0.40307051 3.2019999
-0.47716522 -0.40256697 3.198
-0.47191587 -0.40256697 3.198
-0.46564507 -0.40168583 3.191
-0.45997435 -0.40130818 3.188
-0.45459881 -0.40118229 3.187
-0.40041831 -0.4045811 3.214
-0.39440501 -0.40382579 3.2079999
-0.38865405 -0.40332228 3.204
-0.38303584 -0.40294462 3.201
-0.37766355 -0.40281877 3.2
-0.37241092 -0.40281877 3.2
-0.36704352 -0.40269285 3.1989999
-0.36167943 -0.40256697 3.198
-0.35643008 -0.40256697 3.198
-0.21808986 -0.39916822 3.171
-0.2133548 -0.40004936 3.178
-0.20866221 -0.40105644 3.1860001
-0.2036241 -0.40143403 3.1889999
-0.19863836 -0.4019376 3.1930001
-0.19370006 -0.40256697 3.198
-0.18845071 -0.40256697 3.198
-0.18320136 -0.40256697 3.198
-0.17800765 -0.40269285 3.1989999
-0.17264864 -0.40244111 3.197
-0.16729619 -0.40218934 3.1949999
-0.16164601 -0.40118229 3.187
-0.15626746 -0.40080467 3.184
-0.15104109 -0.40080467 3.184
-0.14576893 -0.40067881 3.1830001
-0.14050004 -0.4005529 3.1819999
-0.13553202 -0.40130818 3.188
-0.65926814 -0.40361008 3.165
-0.654073 -0.40361008 3.165
-0.64928782 -0.40386516 3.1670001
-0.64510626 -0.40450278 3.1719999
-0.63969785 -0.40437523 3.171
-0.634893 -0.4046303 3.1730001
-0.63008159 -0.40488532 3.175
-0.62486994 -0.40488532 3.175
-0.61946321 -0.40475783 3.174
-0.6144467 -0.40488532 3.175
-0.60942703 -0.40501288 3.1760001
-0.60459429 -0.40526789 3.178
-0.59862334 -0.40475783 3.174
-0.48903638 -0.40896606 3.207
-0.48271635 -0.40807343 3.2
-0.47686687 -0.40756333 3.1960001
-0.47147322 -0.4074358 3.1949999
-0.46593693 -0.40718076 3.1930001
-0.46011862 -0.40667066 3.1889999
-0.39428207 -0.40896606 3.207
-0.38853273 -0.40845597 3.2030001
-0.3827965 -0.40794587 3.1989999
-0.37742752 -0.40781835 3.198
-0.37217814 -0.40781835 3.198
-0.36669934 -0.40756333 3.1960001
-0.36134014 -0.4074358 3.1949999
-0.3560957 -0.4074358 3.1949999
-0.21864009 -0.40539542 3.1789999
-0.2135562 -0.40565047 3.181
-0.20853122 -0.40603304 3.184
-0.20336869 -0.40616056 3.1849999
-0.19801626 -0.40590554 3.1830001
-0.19297324 -0.40628809 3.1860001
-0.18786143 -0.40654314 3.188
-0.18274306 -0.40679818 3.1900001
-0.17750685 -0.40679818 3.1900001
-0.17216261 -0.40654314 3.188
-0.16687731 -0.40641561 3.187
-0.16144313 -0.40590554 3.1830001
-0.15621839 -0.40590554 3.1830001
-0.15104109 -0.40603304 3.184
-0.14586052 -0.40616056 3.1849999
-0.1406325 -0.40616056 3.1849999
-0.13557453 -0.40667066 3.1889999
-0.6594764 -0.40893644 3.1659999
-0.65386635 -0.40867811 3.164
-0.64908278 -0.40893644 3.1659999
-0.64449608 -0.40932396 3.1689999
-0.63909262 -0.4091948 3.168
-0.63449275 -0.40958229 3.171
-0.62928772 -0.40958229 3.171
-0.62408274 -0.40958229 3.171
-0.61887765 -0.40958229 3.171
-0.61386615 -0.40971145 3.1719999
-0.60885137 -0.40984064 3.1730001
-0.60364306 -0.40984064 3.1730001
-0.5982461 -0.40971145 3.1719999
-0.59303945 -0.40971145 3.1719999
-0.48903638 -0.41423222 3.207
-0.48271635 -0.41332808 3.2
-0.47686687 -0.4128114 3.1960001
-0.47162077 -0.4128114 3.1960001
-0.46593693 -0.41242391 3.1930001
-0.46069577 -0.41242391 3.1930001
-0.39415914 -0.41410306 3.2060001
-0.38865405 -0.41384473 3.204
-0.3827965 -0.41319889 3.1989999
-0.3773095 -0.41294056 3.197
-0.37206176 -0.41294056 3.197
-0.36635512 -0.41242391 3.1930001
-0.36134014 -0.41268224 3.1949999
-0.3560957 -0.41268224 3.1949999
-0.22413993 -0.41113228 3.1830001
-0.21864009 -0.41061559 3.1789999
-0.2133548 -0.41048643 3.178
-0.20820375 -0.41061559 3.1789999
-0.20304944 -0.41074479 3.1800001
-0.19782963 -0.41074479 3.1800001
-0.19279154 -0.41113228 3.1830001
-0.18768464 -0.41139057 3.1849999
-0.18251392 -0.41151977 3.1860001
-0.17728427 -0.41151977 3.1860001
-0.17200059 -0.41139057 3.1849999
-0.16677257 -0.41139057 3.1849999
-0.16139239 -0.41100308 3.1819999
-0.15612023 -0.41087392 3.181
-0.15089878 -0.41087392 3.181
-0.14572312 -0.41100308 3.1819999
-0.14054419 -0.41113228 3.1830001
-0.135447 -0.41151977 3.1860001
-0.65926814 -0.41400445 3.165
-0.65427965 -0.41413525 3.1659999
-0.64908278 -0.41413525 3.1659999
-0.64449608 -0.41452768 3.1689999
-0.63909262 -0.41439688 3.168
-0.63429266 -0.41465852 3.1700001
-0.6290893 -0.41465852 3.1700001
-0.6234923 -0.41439688 3.168
-0.61829215 -0.41439688 3.168
-0.61309206 -0.41439688 3.168
-0.60827577 -0.41465852 3.1700001
-0.60288209 -0.41452768 3.1689999
-0.59730309 -0.41426611 3.1670001
-0.59266555 -0.41465852 3.1700001
-0.58746213 -0.41465852 3.1700001
-0.48979878 -0.4201524 3.2119999
-0.48407397 -0.41976002 3.2090001
-0.47791132 -0.41897514 3.2030001
-0.47250617 -0.41884434 3.2019999
-0.46681243 -0.41845191 3.1989999
-0.46156144 -0.41845191 3.1989999
-0.40054289 -0.4205448 3.2149999
-0.39415914 -0.41936758 3.2060001
-0.3884114 -0.41884434 3.2019999
-0.3827965 -0.41845191 3.1989999
-0.37719148 -0.4180595 3.1960001
-0.371829 -0.41792867 3.1949999
-0.36635512 -0.41766706 3.1930001
-0.36145326 -0.4180595 3.1960001
-0.35631862 -0.4181903 3.197
-0.22922054 -0.41609737 3.181
-0.22392869 -0.41596657 3.1800001
-0.21850254 -0.41557416 3.177
-0.21322052 -0.41544336 3.1760001
-0.20794177 -0.41531253 3.175
-0.20279405 -0.41544336 3.1760001
-0.197643 -0.41557416 3.177
-0.19254924 -0.41583577 3.1789999
-0.18744895 -0.41609737 3.181
-0.18222748 -0.41609737 3.181
-0.17700604 -0.41609737 3.181
-0.17178458 -0.41609737 3.181
-0.16656312 -0.41609737 3.181
-0.16129097 -0.41596657 3.1800001
-0.15612023 -0.41609737 3.181
-0.15085135 -0.41596657 3.1800001
-0.14567733 -0.41609737 3.181
-0.14054419 -0.41635901 3.1830001
-0.13531946 -0.41635901 3.1830001
-0.65905982 -0.4190692 3.164
-0.65386635 -0.4190692 3.164
-0.6488778 -0.41920164 3.165
-0.6440894 -0.41946656 3.1670001
-0.63848746 -0.41920164 3.165
-0.63369244 -0.41946656 3.1670001
-0.62849396 -0.41946656 3.1670001
-0.6229018 -0.41920164 3.165
-0.61770666 -0.41920164 3.165
-0.61251146 -0.41920164 3.165
-0.60789192 -0.419599 3.168
-0.60269183 -0.419599 3.168
-0.59673733 -0.4190692 3.164
-0.59173071 -0.41920164 3.165
-0.58709151 -0.419599 3.168
-0.40054289 -0.42582411 3.2149999
-0.39465091 -0.42516187 3.21
-0.3884114 -0.42410225 3.2019999
-0.38243756 -0.4233076 3.1960001
-0.37707344 -0.4231751 3.1949999
-0.37171265 -0.42304265 3.194
-0.36635512 -0.42291021 3.1930001
-0.36156633 -0.42344004 3.197
-0.35643008 -0.42357245 3.198
-0.22907643 -0.42105591 3.1789999
-0.22371742 -0.42079106 3.177
-0.21836498 -0.42052612 3.175
-0.21308625 -0.42039368 3.174
-0.20781079 -0.42026126 3.1730001
-0.20253861 -0.42012879 3.1719999
-0.19745637 -0.42039368 3.174
-0.19230697 -0.42052612 3.175
-0.18721323 -0.42079106 3.177
-0.18205562 -0.42092347 3.178
-0.17678346 -0.42079106 3.177
-0.17162257 -0.42092347 3.178
-0.16645841 -0.42105591 3.1789999
-0.16118953 -0.42092347 3.178
-0.15597299 -0.42092347 3.178
-0.15085135 -0.42118841 3.1800001
-0.14563154 -0.42118841 3.1800001
-0.14050004 -0.4214533 3.1819999
-0.13527694 -0.4214533 3.1819999
-0.65864331 -0.42399654 3.1619999
-0.65345299 -0.42399654 3.1619999
-0.64867282 -0.42426476 3.164
-0.6436826 -0.42439884 3.165
-0.6382857 -0.42426476 3.164
-0.63329226 -0.42439884 3.165
-0.62829542 -0.42453289 3.1659999
-0.6229018 -0.42439884 3.165
-0.61770666 -0.42439884 3.165
-0.61212444 -0.42413065 3.1630001
-0.60731626 -0.42439884 3.165
-0.60231131 -0.42453289 3.1659999
-0.59692591 -0.42439884 3.165
-0.59154379 -0.42426476 3.164
-0.58672088 -0.42453289 3.1659999
-0.58134037 -0.42439884 3.165
-0.40054289 -0.43110338 3.2149999
-0.39501974 -0.43083522 3.2130001
-0.3884114 -0.42936021 3.2019999
-0.38219821 -0.42828748 3.194
-0.37660137 -0.4278852 3.191
-0.37171265 -0.42828748 3.194
-0.36658457 -0.42842156 3.1949999
-0.3617925 -0.42895791 3.1989999
-0.22886024 -0.42587385 3.1760001
-0.22357659 -0.42573977 3.175
-0.21822745 -0.42547154 3.1730001
-0.21301912 -0.42547154 3.1730001
-0.2077453 -0.42533746 3.1719999
-0.20247477 -0.42520341 3.171
-0.19733194 -0.42533746 3.1719999
-0.19212526 -0.42533746 3.1719999
-0.18703644 -0.42560565 3.174
-0.18182649 -0.42560565 3.174
-0.17667216 -0.42573977 3.175
-0.17140657 -0.42560565 3.174
-0.16635369 -0.42600796 3.177
-0.16108808 -0.42587385 3.1760001
-0.15592392 -0.42600796 3.177
-0.15075646 -0.42614201 3.178
-0.14558573 -0.42627612 3.1789999
-0.14041173 -0.4264102 3.1800001
-0.13519192 -0.4264102 3.1800001
-0.65801835 -0.42878163 3.1589999
-0.65324634 -0.42905307 3.161
-0.6480577 -0.42905307 3.161
-0.64307243 -0.42918879 3.1619999
-0.63788223 -0.42918879 3.1619999
-0.63289207 -0.42932454 3.1630001
-0.62750167 -0.42918879 3.1619999
-0.62231141 -0.42918879 3.1619999
-0.61731637 -0.42932454 3.1630001
-0.61193091 -0.42918879 3.1619999
-0.60654873 -0.42905307 3.161
-0.60155034 -0.42918879 3.1619999
-0.59654874 -0.42932454 3.1630001
-0.59116983 -0.42918879 3.1619999
-0.58597958 -0.42918879 3.1619999
-0.58078927 -0.42918879 3.1619999
-0.57541698 -0.42905307 3.161
-0.39452797 -0.43556827 3.2090001
-0.38853273 -0.43475389 3.2030001
-0.38255718 -0.43393949 3.197
-0.3768374 -0.43339655 3.1930001
-0.37171265 -0.43353227 3.194
-0.36681408 -0.43393949 3.197
-0.23392609 -0.43081763 3.174
-0.2287882 -0.43095332 3.175
-0.22343574 -0.43068188 3.1730001
-0.21808986 -0.43041041 3.171
-0.21288484 -0.43041041 3.171
-0.20761432 -0.43027467 3.1700001
-0.20234706 -0.43013892 3.1689999
-0.19726974 -0.43041041 3.171
-0.19206469 -0.43041041 3.171
-0.18697752 -0.43068188 3.1730001
-0.18171191 -0.43054613 3.1719999
-0.17644958 -0.43041041 3.171
-0.17135257 -0.43068188 3.1730001
-0.16624896 -0.43095332 3.175
-0.16103736 -0.43095332 3.175
-0.15587485 -0.4310891 3.1760001
-0.15075646 -0.43136054 3.178
-0.14553994 -0.43136054 3.178
-0.14032342 -0.43136054 3.178
-0.13506438 -0.43122479 3.177
-0.65760177 -0.43369418 3.1570001
-0.65283304 -0.43396893 3.1589999
-0.64785272 -0.43410635 3.1600001
-0.64246231 -0.43396893 3.1589999
-0.63747877 -0.43410635 3.1600001
-0.63249183 -0.43424371 3.161
-0.62730324 -0.43424371 3.161
-0.62191778 -0.43410635 3.1600001
-0.61692595 -0.43424371 3.161
-0.61193091 -0.43438107 3.1619999
-0.60654873 -0.43424371 3.161
-0.60097963 -0.43396893 3.1589999
-0.59598291 -0.43410635 3.1600001
-0.59079593 -0.43410635 3.1600001
-0.58579427 -0.43424371 3.161
-0.58023828 -0.43396893 3.1589999
-0.57505292 -0.43396893 3.1589999
-0.44162771 -0.43534267 3.1689999
-0.38901794 -0.44056296 3.207
-0.38291618 -0.43960136 3.2
-0.3773095 -0.4391892 3.197
-0.37217814 -0.43932658 3.198
-0.23377869 -0.43575481 3.1719999
-0.22864407 -0.43589219 3.1730001
-0.22329491 -0.43561745 3.171
-0.21808986 -0.43561745 3.171
-0.21288484 -0.43561745 3.171
-0.20767981 -0.43561745 3.171
-0.20247477 -0.43561745 3.171
-0.19726974 -0.43561745 3.171
-0.19206469 -0.43561745 3.171
-0.18691859 -0.43575481 3.1719999
-0.18171191 -0.43575481 3.1719999
-0.17644958 -0.43561745 3.171
-0.17124455 -0.43561745 3.171
-0.16603951 -0.43561745 3.171
-0.16093592 -0.43589219 3.1730001
-0.15572761 -0.43589219 3.1730001
-0.15056673 -0.43602955 3.174
-0.14540255 -0.43616691 3.175
-0.14023511 -0.43630433 3.1760001
-0.13493684 -0.43602955 3.174
-0.6571852 -0.43860021 3.155
-0.65241969 -0.43887824 3.1570001
-0.6474427 -0.43901727 3.158
-0.64246231 -0.43915626 3.1589999
-0.63727701 -0.43915626 3.1589999
-0.63229179 -0.43929529 3.1600001
-0.62710476 -0.43929529 3.1600001
-0.62172097 -0.43915626 3.1589999
-0.61653566 -0.43915626 3.1589999
-0.61193091 -0.43957329 3.1619999
-0.60654873 -0.43943429 3.161
-0.60116988 -0.43929529 3.1600001
-0.59560573 -0.43901727 3.158
-0.59042197 -0.43901727 3.158
-0.58542359 -0.43915626 3.1589999
-0.58005464 -0.43901727 3.158
-0.57450682 -0.43873918 3.1559999
-0.45488402 -0.44332677 3.1889999
-0.44725245 -0.44096348 3.1719999
-0.44051284 -0.43943429 3.161
-0.43284529 -0.436932 3.1429999
-0.23363128 -0.44068548 3.1700001
-0.22835581 -0.44054642 3.1689999
-0.22315408 -0.44054642 3.1689999
-0.21802111 -0.44068548 3.1700001
-0.21275057 -0.44054642 3.1689999
-0.20754881 -0.44054642 3.1689999
-0.20234706 -0.44054642 3.1689999
-0.19720753 -0.44068548 3.1700001
-0.19200413 -0.44068548 3.1700001
-0.18685967 -0.44082451 3.171
-0.18165463 -0.44082451 3.171
-0.17639394 -0.44068548 3.1700001
-0.17113654 -0.44054642 3.1689999
-0.16603951 -0.44082451 3.171
-0.16093592 -0.44110253 3.1730001
-0.15567853 -0.44096348 3.1719999
-0.15051928 -0.44110253 3.1730001
-0.14535676 -0.44124153 3.174
-0.14014681 -0.44124153 3.174
-0.1348518 -0.44096348 3.1719999
-0.65697688 -0.44364032 3.154
-0.65200639 -0.44378099 3.155
-0.64682764 -0.44378099 3.155
-0.6418522 -0.4439216 3.1559999
-0.63707525 -0.44420293 3.158
-0.63189155 -0.44420293 3.158
-0.62690634 -0.4443436 3.1589999
-0.62172097 -0.4443436 3.1589999
-0.61614531 -0.44406232 3.1570001
-0.61154389 -0.44448426 3.1600001
-0.60616499 -0.4443436 3.1589999
-0.60097963 -0.4443436 3.1589999
-0.59579426 -0.4443436 3.1589999
-0.59079593 -0.44448426 3.1600001
-0.58542359 -0.4443436 3.1589999
-0.58005464 -0.44420293 3.158
-0.57450682 -0.4439216 3.1559999
-0.45417085 -0.44786006 3.184
-0.44682947 -0.44575021 3.1689999
-0.43967667 -0.44378099 3.155
-0.23377869 -0.44617218 3.1719999
-0.22828378 -0.44560954 3.168
-0.22308367 -0.44560954 3.168
-0.21788356 -0.44560954 3.168
-0.21268342 -0.44560954 3.168
-0.20748332 -0.44560954 3.168
-0.20221937 -0.44546887 3.1670001
-0.19714531 -0.44575021 3.1689999
-0.19194356 -0.44575021 3.1689999
-0.1867418 -0.44575021 3.1689999
-0.18148276 -0.44560954 3.168
-0.17633829 -0.44575021 3.1689999
-0.17113654 -0.44575021 3.1689999
-0.16598716 -0.44589084 3.1700001
-0.16083448 -0.44603151 3.171
-0.15567853 -0.44617218 3.1719999
-0.15047184 -0.44617218 3.1719999
-0.14531097 -0.44631284 3.1730001
-0.14005849 -0.44617218 3.1719999
-0.1348093 -0.44603151 3.171
-0.65656024 -0.44853485 3.152
-0.65138638 -0.44853485 3.152
-0.64621258 -0.44853485 3.152
-0.64124215 -0.44867715 3.1530001
-0.6368736 -0.44924632 3.1570001
-0.63189155 -0.44938865 3.158
-0.62631094 -0.44910401 3.1559999
-0.6213274 -0.44924632 3.1570001
-0.61634046 -0.44938865 3.158
-0.6113503 -0.4495309 3.1589999
-0.60616499 -0.4495309 3.1589999
-0.60097963 -0.4495309 3.1589999
-0.59579426 -0.4495309 3.1589999
-0.59060895 -0.4495309 3.1589999
-0.58505303 -0.44924632 3.1570001
-0.57968724 -0.44910401 3.1559999
-0.57432479 -0.44896173 3.155
-0.2334839 -0.45081162 3.168
-0.22835581 -0.45095396 3.1689999
-0.22308367 -0.45081162 3.168
-0.21781479 -0.45066938 3.1670001
-0.21254915 -0.45052704 3.1659999
-0.20735233 -0.45052704 3.1659999
-0.20221937 -0.45066938 3.1670001
-0.19702089 -0.45066938 3.1670001
-0.19194356 -0.45095396 3.1689999
-0.18668288 -0.45081162 3.168
-0.18148276 -0.45081162 3.168
-0.17628264 -0.45081162 3.168
-0.17119054 -0.45109627 3.1700001
-0.16603951 -0.45123854 3.171
-0.16083448 -0.45123854 3.171
-0.15562944 -0.45123854 3.171
-0.15042441 -0.45123854 3.171
-0.14526516 -0.45138085 3.1719999
-0.14001434 -0.45123854 3.171
-0.13476679 -0.45109627 3.1700001
-0.65614367 -0.45342278 3.1500001
-0.65097314 -0.45342278 3.1500001
-0.64580256 -0.45342278 3.1500001
-0.64083534 -0.4535667 3.151
-0.63647008 -0.45414251 3.155
-0.63129133 -0.45414251 3.155
-0.6259141 -0.45399854 3.154
-0.62034333 -0.45371062 3.152
-0.61536467 -0.45385459 3.1530001
-0.61038274 -0.45399854 3.154
-0.60501367 -0.45385459 3.1530001
-0.60002846 -0.45399854 3.154
-0.59503984 -0.45414251 3.155
-0.59004802 -0.45428643 3.1559999
-0.58449703 -0.45399854 3.154
-0.57913619 -0.45385459 3.1530001
-0.57341462 -0.45342278 3.1500001
-0.2334839 -0.45601374 3.168
-0.22828378 -0.45601374 3.168
-0.22294281 -0.45572585 3.1659999
-0.21774597 -0.45572585 3.1659999
-0.21241491 -0.45543799 3.164
-0.20722134 -0.45543799 3.164
-0.20209166 -0.45558193 3.165
-0.19689646 -0.45558193 3.165
-0.19182242 -0.45586982 3.1670001
-0.18662395 -0.45586982 3.1670001
-0.18154004 -0.45615765 3.1689999
-0.17633829 -0.45615765 3.1689999
-0.17124455 -0.4564456 3.171
-0.16614424 -0.45673349 3.1730001
-0.16093592 -0.45673349 3.1730001
-0.15562944 -0.4564456 3.171
-0.15042441 -0.4564456 3.171
-0.14521937 -0.4564456 3.171
-0.13997018 -0.45630163 3.1700001
-0.13472426 -0.45615765 3.1689999
-0.65572709 -0.45830411 3.148
-0.65035313 -0.45815855 3.1470001
-0.64498246 -0.45801297 3.1459999
-0.64002186 -0.45815855 3.1470001
-0.63566315 -0.45874089 3.151
-0.63029087 -0.45859534 3.1500001
-0.62492186 -0.45844969 3.1489999
-0.6191625 -0.45801297 3.1459999
-0.61360818 -0.45772183 3.1440001
-0.60883445 -0.45801297 3.1459999
-0.60328674 -0.45772183 3.1440001
-0.59812599 -0.45772183 3.1440001
-0.59334248 -0.45801297 3.1459999
-0.58855242 -0.45830411 3.148
-0.58301449 -0.45801297 3.1459999
-0.57729942 -0.45757619 3.1429999
-0.57141221 -0.45699388 3.1389999
-0.2383073 -0.46048796 3.1630001
-0.23304167 -0.46034235 3.1619999
-0.22777937 -0.46019676 3.161
-0.22266115 -0.46034235 3.1619999
-0.21760845 -0.46063355 3.164
-0.2122135 -0.46019676 3.161
-0.20709036 -0.46034235 3.1619999
-0.2020278 -0.46063355 3.164
-0.19702089 -0.46107027 3.1670001
-0.191883 -0.46121585 3.168
-0.18662395 -0.46107027 3.1670001
-0.18159735 -0.46150705 3.1700001
-0.17639394 -0.46150705 3.1700001
-0.17108254 -0.46121585 3.168
-0.16609187 -0.46179819 3.1719999
-0.16098665 -0.46208936 3.174
-0.15558036 -0.46150705 3.1700001
-0.15032953 -0.46136141 3.1689999
-0.14517358 -0.46150705 3.1700001
-0.13997018 -0.46150705 3.1700001
-0.13463925 -0.46107027 3.1670001
-0.64952648 -0.46273726 3.1429999
-0.64395738 -0.46244279 3.141
-0.63880163 -0.46244279 3.141
-0.634251 -0.46288449 3.1440001
-0.62869006 -0.46259004 3.142
-0.62313581 -0.46229562 3.1400001
-0.61699754 -0.46155947 3.135
-0.61126614 -0.46111777 3.132
-0.47420487 -0.4054656 2.7539999
-0.46746722 -0.40355164 2.7409999
-0.32617098 -0.39059561 2.6530001
-0.32218009 -0.39103729 2.6559999
-0.25040394 -0.40178493 2.7290001
-0.24673545 -0.40310994 2.7379999
-0.24294898 -0.40428782 2.7460001
-0.23215728 -0.46376786 3.1500001
-0.22705875 -0.46391508 3.151
-0.22188658 -0.46391508 3.151
-0.21698944 -0.464504 3.155
-0.21181068 -0.464504 3.155
-0.20676289 -0.46479848 3.1570001
-0.20177241 -0.46524015 3.1600001
-0.19670984 -0.46553457 3.1619999
-0.19170128 -0.46597627 3.165
-0.18662395 -0.46627071 3.1670001
-0.18148276 -0.46641794 3.168
-0.17644958 -0.46685964 3.171
-0.17124455 -0.46685964 3.171
-0.1661966 -0.46730134 3.174
-0.16093592 -0.46715412 3.1730001
-0.15562944 -0.46685964 3.171
-0.1502821 -0.46641794 3.168
-0.14503619 -0.46627071 3.1670001
-0.13979356 -0.46612349 3.1659999
-0.13438417 -0.4653874 3.161
-0.64252228 -0.46655852 3.1340001
-0.63737798 -0.46655852 3.1340001
-0.63243538 -0.46670735 3.135
-0.62548864 -0.46536756 3.1259999
-0.61976212 -0.46492091 3.1229999
-0.61306137 -0.46372998 3.115
-0.47976843 -0.41088113 2.76
-0.47334397 -0.40924355 2.7490001
-0.4669556 -0.40760598 2.7379999
-0.46161678 -0.40686163 2.733
-0.44520691 -0.40418199 2.7149999
-0.26413253 -0.40671277 2.7320001
-0.25879273 -0.40537295 2.723
-0.25422966 -0.40522406 2.7219999
-0.25022045 -0.40596843 2.727
-0.24655522 -0.40730825 2.7360001
-0.24286048 -0.40864804 2.7449999
-0.21080366 -0.46745172 3.1400001
-0.20610797 -0.46849379 3.1470001
-0.20126158 -0.46923816 3.152
-0.19621216 -0.46953589 3.154
-0.19139844 -0.47042915 3.1600001
-0.18644717 -0.47102457 3.164
-0.18159735 -0.47191784 3.1700001
-0.17639394 -0.47191784 3.1700001
-0.17129855 -0.47221553 3.1719999
-0.16624896 -0.47266215 3.175
-0.15543313 -0.47147122 3.1670001
-0.14999746 -0.47072685 3.1619999
-0.14466982 -0.47028026 3.1589999
-0.13930786 -0.46968478 3.155
-0.1338315 -0.46864268 3.148
-0.62799722 -0.46854401 3.1129999
-0.48587805 -0.41676787 2.7690001
-0.47959459 -0.41526276 2.7590001
-0.4728274 -0.41330609 2.7460001
-0.46678504 -0.41195148 2.737
-0.4609412 -0.41074741 2.7290001
-0.4554581 -0.40984434 2.723
