ply
format ascii 1.0
comment PCL generated
element vertex 1493
property float x
property float y
property float z
element face 0
element camera 0
property float view_px
property float view_py
property float view_pz
property float x_axisx
property float x_axisy
property float x_axisz
property float y_axisx
property float y_axisy
property float y_axisz
property float z_axisx
property float z_axisy
property float z_axisz
property float focal
property float scalex
property float scaley
property float centerx
property float centery
property int viewportx
property int viewporty
property float k1
property float k2
end_header
0.16481692 -0.16302139 2.5680001
0.16962454 -0.1635927 2.5769999
0.17405695 -0.16378315 2.5799999
0.18741326 -0.16435449 2.589
0.19188507 -0.16454494 2.592
0.19621536 -0.16460842 2.5929999
0.2007809 -0.16486235 2.5969999
0.20512271 -0.16492584 2.598
0.20962898 -0.16511628 2.6010001
0.21406285 -0.16524324 2.6029999
0.21858719 -0.16543369 2.6059999
0.22303586 -0.16556065 2.608
0.22740389 -0.16562413 2.609
0.23221926 -0.16600502 2.615
0.23714477 -0.16644938 2.622
0.24190909 -0.16676681 2.6270001
0.24650235 -0.16695724 2.6300001
0.25139156 -0.16733813 2.6359999
0.25581545 -0.16740163 2.6370001
0.25787497 -0.16594155 2.6140001
0.25835457 -0.16352923 2.576
0.25881138 -0.16118041 2.539
0.26028603 -0.15952986 2.513
0.26188579 -0.15800633 2.4890001
-0.14235276 -0.17166665 2.6359999
-0.13760702 -0.17114568 2.628
-0.13288751 -0.17062467 2.6199999
-0.12834153 -0.17029907 2.615
-0.12385939 -0.17003857 2.6110001
-0.11934458 -0.16971293 2.6059999
-0.11489034 -0.16945244 2.602
-0.11044924 -0.16919196 2.598
-0.10606214 -0.16899659 2.595
-0.10168489 -0.1688012 2.592
-0.097317487 -0.16860583 2.589
-0.092923984 -0.16834535 2.585
-0.088612221 -0.1682151 2.5829999
-0.084372357 -0.1682151 2.5829999
-0.080101475 -0.16814998 2.582
-0.075745724 -0.16788948 2.5780001
-0.071486324 -0.16782434 2.5769999
-0.06723021 -0.16775922 2.576
-0.062855095 -0.16736847 2.5699999
-0.05854531 -0.16710798 2.566
-0.054312177 -0.16704287 2.5650001
-0.037295599 -0.16626137 2.553
-0.032975312 -0.16561013 2.543
-0.028801104 -0.16561013 2.543
-0.024646267 -0.16574039 2.5450001
-0.020484863 -0.16587062 2.5469999
-0.016291289 -0.16574039 2.5450001
-0.01210904 -0.16567525 2.5439999
-0.0079487842 -0.16600089 2.549
-0.0037602992 -0.1658055 2.546
0.00041850228 -0.16567525 2.5439999
0.0045925439 -0.16561013 2.543
0.0087667499 -0.16561013 2.543
0.012956223 -0.1658055 2.546
0.017101701 -0.16547988 2.5409999
0.021272624 -0.16547988 2.5409999
0.025443546 -0.16547988 2.5409999
0.029602814 -0.16541475 2.54
0.033785392 -0.16547988 2.5409999
0.037956316 -0.16547988 2.5409999
0.042176977 -0.16567525 2.5439999
0.046389267 -0.1658055 2.546
0.050588258 -0.16587062 2.5469999
0.054769032 -0.16587062 2.5469999
0.058903512 -0.16574039 2.5450001
0.063031428 -0.16561013 2.543
0.067152776 -0.16547988 2.5409999
0.07126756 -0.16534965 2.539
0.075405493 -0.16528453 2.5380001
0.079571493 -0.16528453 2.5380001
0.08367151 -0.16515428 2.536
0.087834224 -0.16515428 2.536
0.092105761 -0.16534965 2.539
0.096235491 -0.16528453 2.5380001
0.10028281 -0.16508916 2.5350001
0.10440268 -0.16502401 2.5339999
0.10881916 -0.16541475 2.54
0.1131219 -0.16561013 2.543
0.11734223 -0.16567525 2.5439999
0.12166137 -0.16587062 2.5469999
0.12599038 -0.16606601 2.55
0.13038026 -0.16632649 2.5539999
0.13457252 -0.16632649 2.5539999
0.13860181 -0.16613114 2.5510001
0.14278914 -0.16613114 2.5510001
0.14691886 -0.16606601 2.55
0.15086754 -0.1658055 2.546
0.15474215 -0.16547988 2.5409999
0.15903816 -0.16561013 2.543
0.16366164 -0.16606601 2.55
0.16824228 -0.16645674 2.556
0.1919591 -0.16886632 2.5929999
0.19659373 -0.16919196 2.598
0.20101283 -0.16932221 2.5999999
0.2052806 -0.16932221 2.5999999
0.20979016 -0.16951756 2.6029999
0.21414511 -0.16958269 2.6040001
0.21850331 -0.16964781 2.605
0.22295032 -0.16977808 2.6070001
0.22749105 -0.16997343 2.6099999
0.23239687 -0.17042932 2.6170001
0.23750654 -0.17101543 2.6259999
0.24255367 -0.17153642 2.6340001
0.24734586 -0.17186204 2.6389999
0.25167766 -0.17186204 2.6389999
0.25630048 -0.17205741 2.642
0.25846687 -0.17062467 2.6199999
0.25895634 -0.16814998 2.582
0.25881138 -0.16534965 2.539
0.25987175 -0.16339593 2.5090001
0.26188579 -0.16209345 2.4890001
-0.14634576 -0.1755946 2.6300001
-0.14197475 -0.17552781 2.6289999
-0.13744994 -0.17526075 2.625
-0.13278608 -0.17479339 2.618
-0.12829246 -0.17452633 2.6140001
-0.12381195 -0.17425926 2.6099999
-0.11929879 -0.17392544 2.605
-0.11480203 -0.1735916 2.5999999
-0.11032171 -0.17325778 2.595
-0.10610302 -0.17332454 2.596
-0.10172412 -0.17312424 2.5929999
-0.097279899 -0.17279042 2.5880001
-0.092923984 -0.17259012 2.585
-0.088680841 -0.17259012 2.585
-0.084470354 -0.17265688 2.586
-0.080194548 -0.17259012 2.585
-0.075775109 -0.17218952 2.579
-0.071486324 -0.17205599 2.5769999
-0.067282416 -0.17212276 2.5780001
-0.062952921 -0.17185567 2.5739999
-0.058568127 -0.17138831 2.5669999
-0.032858606 -0.16918504 2.5339999
-0.028812427 -0.1698527 2.5439999
-0.024685003 -0.17018653 2.549
-0.02053312 -0.17045359 2.553
-0.016342498 -0.17045359 2.553
-0.01212808 -0.17011978 2.5480001
-0.0079550222 -0.17032009 2.5510001
-0.0037602992 -0.16998623 2.546
0.00041800874 -0.1696524 2.5409999
0.0045853201 -0.16951887 2.539
0.0087564075 -0.16958565 2.54
0.012930778 -0.1696524 2.5409999
0.01708824 -0.16951887 2.539
0.021239135 -0.16938534 2.5369999
0.025413509 -0.16945212 2.5380001
0.029602814 -0.16958565 2.54
0.0337721 -0.16958565 2.54
0.037926439 -0.16951887 2.539
0.042143818 -0.16971917 2.5420001
0.046371046 -0.16991948 2.5450001
0.050568394 -0.16998623 2.546
0.054769032 -0.17005301 2.5469999
0.058926657 -0.16998623 2.546
0.063006639 -0.16971917 2.5420001
0.067179203 -0.16971917 2.5420001
0.071295634 -0.16958565 2.54
0.075435206 -0.16951887 2.539
0.079634197 -0.16958565 2.54
0.083869472 -0.16971917 2.5420001
0.087903492 -0.16945212 2.5380001
0.091996938 -0.16931859 2.536
0.096121736 -0.16925181 2.5350001
0.10020369 -0.16911829 2.533
0.10432028 -0.16905151 2.5320001
0.10860497 -0.16925181 2.5350001
0.11298845 -0.16958565 2.54
0.11720385 -0.1696524 2.5409999
0.12161361 -0.16998623 2.546
0.12594098 -0.17018653 2.549
0.13012502 -0.17018653 2.549
0.13430908 -0.17018653 2.549
0.13838446 -0.17005301 2.5469999
0.1424533 -0.16991948 2.5450001
0.14645794 -0.16971917 2.5420001
0.15039347 -0.16945212 2.5380001
0.15431587 -0.16918504 2.5339999
0.15841277 -0.16911829 2.533
0.1627631 -0.16931859 2.536
0.16712329 -0.16951887 2.539
0.17156079 -0.16978595 2.543
0.18625505 -0.17178893 2.573
0.19144088 -0.17265688 2.586
0.19621536 -0.17312424 2.5929999
0.20062628 -0.17325778 2.595
0.20512271 -0.17345808 2.598
0.20946778 -0.17352484 2.599
0.21389838 -0.17365839 2.6010001
0.21816781 -0.17365839 2.6010001
0.22252272 -0.17372514 2.602
0.2272296 -0.17405897 2.6070001
0.23213048 -0.17452633 2.6140001
0.23732565 -0.175194 2.6240001
0.24264576 -0.17592841 2.635
0.24781452 -0.17652932 2.6440001
0.25244063 -0.1767296 2.6470001
0.25649452 -0.17652932 2.6440001
0.25886148 -0.175194 2.6240001
0.25955808 -0.17279042 2.5880001
0.25911719 -0.16971917 2.5420001
0.25997531 -0.16758266 2.51
0.26230666 -0.16644764 2.493
-0.15129292 -0.18066575 2.641
-0.14679092 -0.18046053 2.638
-0.14224476 -0.1801869 2.6340001
-0.1377641 -0.17998168 2.631
-0.13298896 -0.17936599 2.622
-0.12843969 -0.17902395 2.6170001
-0.12395426 -0.17875031 2.6129999
-0.11939039 -0.17833988 2.6070001
-0.1148462 -0.17792943 2.6010001
-0.11032171 -0.17751898 2.595
-0.10602128 -0.17745058 2.5940001
-0.10164566 -0.17724533 2.5910001
-0.097279899 -0.17704011 2.5880001
-0.092959933 -0.17690329 2.586
-0.088680841 -0.1768349 2.585
-0.084470354 -0.17690329 2.586
-0.080225565 -0.17690329 2.586
-0.07592202 -0.1767665 2.5840001
-0.071625032 -0.17662968 2.582
-0.067412905 -0.17669807 2.5829999
-0.012204236 -0.17539832 2.5639999
-0.0079799686 -0.17505628 2.559
-0.0037691609 -0.17457743 2.552
0.00041866681 -0.17409858 2.5450001
0.004587126 -0.17375652 2.54
0.0087495139 -0.17361972 2.5380001
0.0129206 -0.17368811 2.539
0.017074779 -0.17355131 2.5369999
0.02124751 -0.17361972 2.5380001
0.025413509 -0.17361972 2.5380001
0.029591162 -0.17368811 2.539
0.033785392 -0.17382492 2.5409999
0.037956316 -0.17382492 2.5409999
0.042143818 -0.17389335 2.5420001
0.046352822 -0.17403015 2.5439999
0.050568394 -0.17416698 2.546
0.054769032 -0.17423539 2.5469999
0.058926657 -0.17416698 2.546
0.063031428 -0.17396174 2.543
0.067179203 -0.17389335 2.5420001
0.071295634 -0.17375652 2.54
0.075435206 -0.17368811 2.539
0.079571493 -0.17361972 2.5380001
0.083737493 -0.17361972 2.5380001
0.087903492 -0.17361972 2.5380001
0.091996938 -0.17348289 2.536
0.096083812 -0.17334607 2.5339999
0.10020369 -0.17327768 2.533
0.10432028 -0.17320928 2.5320001
0.10856211 -0.17334607 2.5339999
0.11281051 -0.17348289 2.536
0.11711161 -0.17368811 2.539
0.12142255 -0.17389335 2.5420001
0.12579274 -0.17416698 2.546
0.13002291 -0.17423539 2.5469999
0.13425639 -0.1743038 2.5480001
0.13833015 -0.17416698 2.546
0.14239731 -0.17403015 2.5439999
0.14634269 -0.17375652 2.54
0.15027496 -0.17348289 2.536
0.15419409 -0.17320928 2.5320001
0.15816262 -0.17300403 2.529
0.16250639 -0.17320928 2.5320001
0.16672835 -0.17327768 2.533
0.17095362 -0.17334607 2.5339999
0.17538947 -0.17361972 2.5380001
0.1800507 -0.17409858 2.5450001
0.18495207 -0.17478265 2.5550001
0.19018239 -0.17574038 2.569
0.19515598 -0.17642444 2.579
0.19977584 -0.1767665 2.5840001
0.2042542 -0.1769717 2.5869999
0.20858124 -0.17704011 2.5880001
0.21307603 -0.17724533 2.5910001
0.21724512 -0.17717692 2.5899999
0.22149648 -0.17717692 2.5899999
0.22627081 -0.17758739 2.596
0.23142003 -0.17827146 2.6059999
0.23669255 -0.17902395 2.6170001
0.24200116 -0.17977643 2.628
0.24725217 -0.18046053 2.638
0.25234523 -0.18100779 2.6459999
0.25639749 -0.18080255 2.6429999
0.25935474 -0.17984484 2.6289999
0.25995925 -0.17731375 2.592
0.25993267 -0.17444061 2.55
0.2603896 -0.17197791 2.5139999
0.26230666 -0.17054135 2.493
-0.15152207 -0.18528268 2.645
-0.14706914 -0.18514258 2.6429999
-0.14235276 -0.18465222 2.6359999
-0.1379212 -0.18451212 2.6340001
-0.13319184 -0.18395172 2.6259999
-0.12873416 -0.18374157 2.6229999
-0.12414403 -0.18332128 2.6170001
-0.11957357 -0.18290098 2.6110001
-0.11502282 -0.18248068 2.605
-0.11040673 -0.18192026 2.5969999
-0.10602128 -0.18171012 2.5940001
-0.10160643 -0.18142992 2.5899999
-0.097279899 -0.18128982 2.5880001
-0.092995875 -0.18121976 2.5869999
-0.088680841 -0.18107967 2.585
-0.084470354 -0.18114972 2.586
-0.080163531 -0.18100962 2.5840001
-0.07586325 -0.1808695 2.582
-0.071569547 -0.1807294 2.5799999
-0.067308515 -0.18065937 2.579
-0.0037794993 -0.17925836 2.559
0.00041784428 -0.1779274 2.54
0.004581708 -0.17771727 2.5369999
0.0087391706 -0.17757715 2.5350001
0.012905334 -0.1776472 2.536
0.017068049 -0.1776472 2.536
0.021230767 -0.1776472 2.536
0.025413509 -0.17778732 2.5380001
0.029591162 -0.17785737 2.539
0.033785392 -0.17799746 2.5409999
0.037971254 -0.17806751 2.5420001
0.042143818 -0.17806751 2.5420001
0.046352822 -0.17820761 2.5439999
0.050568394 -0.17834771 2.546
0.054790534 -0.17848781 2.5480001
0.058949798 -0.17841776 2.5469999
0.063056216 -0.17820761 2.5439999
0.067205638 -0.17813757 2.543
0.071295634 -0.1779274 2.54
0.075435206 -0.17785737 2.539
0.079571493 -0.17778732 2.5380001
0.083638512 -0.17757715 2.5350001
0.087834224 -0.1776472 2.536
0.091960661 -0.17757715 2.5350001
0.096045896 -0.17743705 2.533
0.10016414 -0.17736702 2.5320001
0.10432028 -0.17736702 2.5320001
0.10851927 -0.17743705 2.533
0.112855 -0.17771727 2.5369999
0.11706548 -0.17778732 2.5380001
0.12142255 -0.17806751 2.5420001
0.12569393 -0.17820761 2.5439999
0.12992083 -0.17827767 2.5450001
0.13420369 -0.17841776 2.5469999
0.13816714 -0.17813757 2.543
0.14228538 -0.17806751 2.5420001
0.14628509 -0.17785737 2.539
0.15021572 -0.17757715 2.5350001
0.15419409 -0.17736702 2.5320001
0.15816262 -0.17715685 2.529
0.16244219 -0.17729695 2.5309999
0.16666254 -0.17736702 2.5320001
0.17088614 -0.17743705 2.533
0.17525126 -0.1776472 2.536
0.17969695 -0.1779274 2.54
0.18459012 -0.17862791 2.55
0.18959016 -0.17939846 2.5610001
0.19424792 -0.17981876 2.5669999
0.19892541 -0.18023907 2.573
0.20362258 -0.18065937 2.579
0.20769468 -0.18051927 2.5769999
0.21200694 -0.18058932 2.5780001
0.21598697 -0.18037917 2.575
0.22004265 -0.18023907 2.573
0.22461474 -0.18051927 2.5769999
0.22964399 -0.18114972 2.586
0.23506455 -0.18206036 2.599
0.24052778 -0.18297102 2.612
0.24593998 -0.18381163 2.6240001
0.25129622 -0.18458217 2.635
0.25542739 -0.18444207 2.6329999
0.25955203 -0.18430197 2.631
0.25975865 -0.18142992 2.5899999
0.25952491 -0.17834771 2.546
0.26059678 -0.1762462 2.516
0.26241189 -0.1747051 2.494
-0.15163665 -0.18976937 2.6470001
-0.14723608 -0.18969767 2.6459999
-0.14251478 -0.18919581 2.6389999
-0.13807827 -0.18905245 2.6370001
-0.13349617 -0.18869399 2.632
-0.12893048 -0.18833552 2.6270001
-0.12447608 -0.18812044 2.6240001
-0.11975674 -0.18747522 2.615
-0.11524358 -0.18711674 2.6099999
-0.11057679 -0.18647152 2.6010001
-0.10610302 -0.18611304 2.596
-0.10160643 -0.18568289 2.5899999
-0.097242303 -0.18546781 2.5869999
-0.092923984 -0.18532445 2.585
-0.088646539 -0.18525276 2.5840001
-0.084437691 -0.18532445 2.585
-0.080132492 -0.18518107 2.5829999
-0.075804487 -0.18496598 2.5799999
-0.07151407 -0.1848226 2.5780001
-0.06723021 -0.18467921 2.576
0.012910423 -0.1818832 2.5369999
0.017054589 -0.18166813 2.5339999
0.021239135 -0.1818832 2.5369999
0.025433535 -0.18209828 2.54
0.029626127 -0.18224168 2.5420001
0.033798691 -0.18224168 2.5420001
0.037986193 -0.18231337 2.543
0.042160399 -0.18231337 2.543
0.046389267 -0.18252844 2.546
0.050588258 -0.18260013 2.5469999
0.054812036 -0.18274352 2.549
0.058996089 -0.18274352 2.549
0.063130572 -0.18260013 2.5469999
0.067258492 -0.18245676 2.5450001
0.07126756 -0.18202661 2.539
0.075346075 -0.18181153 2.536
0.079508789 -0.18181153 2.536
0.083572522 -0.18159644 2.533
0.087695681 -0.18152475 2.5320001
0.09185183 -0.18152475 2.5320001
0.095932141 -0.18138137 2.53
0.10008501 -0.18138137 2.53
0.10427907 -0.18145306 2.5309999
0.10847643 -0.18152475 2.5320001
0.112855 -0.1818832 2.5369999
0.11711161 -0.18202661 2.539
0.12137478 -0.18216997 2.5409999
0.12569393 -0.18238506 2.5439999
0.12986977 -0.18238506 2.5439999
0.13409832 -0.18245676 2.5450001
0.13800414 -0.18209828 2.54
0.14211746 -0.18202661 2.539
0.14616986 -0.1818832 2.5369999
0.15015644 -0.18166813 2.5339999
0.15413317 -0.18145306 2.5309999
0.15816262 -0.18130969 2.529
0.16237801 -0.18138137 2.53
0.16672835 -0.18159644 2.533
0.17088614 -0.18159644 2.533
0.17525126 -0.18181153 2.536
0.17969695 -0.18209828 2.54
0.18451774 -0.18274352 2.549
0.18914597 -0.18317367 2.5550001
0.19394523 -0.18374722 2.563
0.1983069 -0.18389061 2.5650001
0.2030699 -0.18439244 2.572
0.20704992 -0.18417735 2.569
0.21118456 -0.18410568 2.5680001
0.21531591 -0.18403398 2.5669999
0.21927297 -0.18381889 2.5639999
0.22365595 -0.18396229 2.566
0.22848953 -0.18446413 2.573
0.23406966 -0.18553953 2.5880001
0.23942275 -0.18639982 2.5999999
0.24462779 -0.18711674 2.6099999
0.25005642 -0.18797705 2.622
0.2545543 -0.18812044 2.6240001
0.25836819 -0.18776198 2.619
0.25995925 -0.18582629 2.592
0.25932103 -0.18238506 2.5439999
0.2603896 -0.18023428 2.5139999
0.26272753 -0.17901552 2.497
-0.15615834 -0.19433597 2.6500001
-0.15186578 -0.19440928 2.651
-0.14768124 -0.1946293 2.654
-0.14300081 -0.19418928 2.648
-0.13854952 -0.19404261 2.6459999
-0.13395266 -0.19367595 2.641
-0.12942128 -0.19338261 2.6370001
-0.12480814 -0.1929426 2.631
-0.12021471 -0.19250259 2.625
-0.11559682 -0.19198926 2.618
-0.11078935 -0.19110923 2.6059999
-0.10622563 -0.1905959 2.599
-0.10164566 -0.19000922 2.5910001
-0.097204715 -0.18964255 2.586
-0.092923984 -0.18956922 2.585
-0.088577926 -0.18934922 2.582
-0.084372357 -0.18942253 2.5829999
-0.080132492 -0.18942253 2.5829999
-0.075833872 -0.18927589 2.5810001
-0.07151407 -0.18905587 2.5780001
-0.067256309 -0.18898255 2.5769999
0.021222394 -0.18590252 2.5350001
0.025473585 -0.18656251 2.5439999
0.029696053 -0.18685585 2.5480001
0.033878468 -0.18685585 2.5480001
0.038016066 -0.18663585 2.5450001
0.042226713 -0.18678251 2.5469999
0.046443928 -0.1869292 2.549
0.050647844 -0.18700251 2.55
0.054855049 -0.18707585 2.5510001
0.059065524 -0.18714918 2.552
0.063254505 -0.18714918 2.552
0.067390628 -0.18700251 2.55
0.071407907 -0.18656251 2.5439999
0.075435206 -0.18619585 2.539
0.079414733 -0.18575583 2.533
0.083506532 -0.18560916 2.5309999
0.087591775 -0.1854625 2.529
0.091670446 -0.18531582 2.527
0.095742561 -0.18516918 2.5250001
0.099926777 -0.1852425 2.526
0.10423788 -0.18553583 2.53
0.10851927 -0.18575583 2.533
0.112855 -0.18604916 2.5369999
0.11720385 -0.18634249 2.5409999
0.12147032 -0.18648918 2.543
0.12569393 -0.18656251 2.5439999
0.12981872 -0.18648918 2.543
0.13404562 -0.18656251 2.5439999
0.13794981 -0.18619585 2.539
0.14200549 -0.18604916 2.5369999
0.14605463 -0.18590252 2.5350001
0.15003794 -0.18568251 2.5320001
0.15401138 -0.1854625 2.529
0.15810008 -0.18538916 2.5280001
0.16237801 -0.18553583 2.53
0.16666254 -0.18568251 2.5320001
0.17102109 -0.18590252 2.5350001
0.17532036 -0.18604916 2.5369999
0.17969695 -0.18626918 2.54
0.18444535 -0.18685585 2.5480001
0.18907194 -0.18729585 2.5539999
0.1935669 -0.1875892 2.5580001
0.19807495 -0.18788253 2.562
0.20259617 -0.18817587 2.566
0.20664693 -0.18802918 2.5639999
0.21077338 -0.18795587 2.563
0.21498041 -0.18795587 2.563
0.21927297 -0.18802918 2.5639999
0.22374313 -0.1882492 2.5669999
0.22866717 -0.18883587 2.575
0.23434101 -0.19000922 2.5910001
0.23942275 -0.19066922 2.5999999
0.24425291 -0.19110923 2.6059999
0.24891198 -0.19140257 2.6099999
0.25377822 -0.19184257 2.6159999
0.25698709 -0.19103591 2.605
0.25925723 -0.18956922 2.585
0.25962684 -0.18678251 2.5469999
0.26049319 -0.18443583 2.5150001
0.26283273 -0.18318912 2.4979999
-0.16135615 -0.19973713 2.664
-0.15680654 -0.1995122 2.661
-0.15220951 -0.1992123 2.6570001
-0.14773688 -0.19906233 2.655
-0.14316282 -0.19876245 2.651
-0.13875899 -0.19868746 2.6500001
-0.13415553 -0.19831257 2.645
-0.12966666 -0.19808765 2.642
-0.12523508 -0.19793771 2.6400001
-0.12067267 -0.19756281 2.635
-0.11617083 -0.19726291 2.631
-0.11125699 -0.19621325 2.6170001
-0.1065526 -0.19546349 2.6070001
-0.10180259 -0.19456376 2.595
-0.097317487 -0.1941139 2.589
-0.093031831 -0.19403893 2.5880001
-0.088680841 -0.19381399 2.585
-0.084405035 -0.19373903 2.5840001
-0.080163531 -0.19373903 2.5840001
-0.07586325 -0.19358906 2.582
-0.071569547 -0.1934391 2.5799999
-0.067308515 -0.19336413 2.579
0.025413509 -0.19029011 2.5380001
0.029696053 -0.19103988 2.5480001
0.033878468 -0.19103988 2.5480001
0.038045943 -0.19096488 2.5469999
0.042259872 -0.19111484 2.549
0.046498589 -0.19133978 2.552
0.05070743 -0.19141474 2.553
0.054941058 -0.19156471 2.5550001
0.059204396 -0.19178964 2.5580001
0.063378431 -0.19171464 2.5569999
0.0676549 -0.19193958 2.5599999
0.07180088 -0.19178964 2.5580001
0.091561615 -0.18924043 2.5239999
0.09551505 -0.18886556 2.5190001
0.099728979 -0.18901551 2.5209999
0.10419668 -0.18961532 2.529
0.10869063 -0.19021513 2.5369999
0.11316638 -0.19073996 2.5439999
0.11748061 -0.19096488 2.5469999
0.12170915 -0.19103988 2.5480001
0.12589157 -0.19103988 2.5480001
0.12997188 -0.19088991 2.546
0.13399293 -0.19066499 2.543
0.13784115 -0.19021513 2.5369999
0.14189357 -0.19006518 2.5350001
0.14593939 -0.18991522 2.533
0.14997867 -0.18976526 2.5309999
0.1539505 -0.18954036 2.5280001
0.157975 -0.18939039 2.526
0.16237801 -0.18969029 2.53
0.16666254 -0.18984026 2.5320001
0.17088614 -0.18991522 2.533
0.17525126 -0.19014014 2.536
0.17983845 -0.19059002 2.5420001
0.18459012 -0.19118981 2.55
0.18929403 -0.19171464 2.5569999
0.19394523 -0.19216451 2.563
0.19838421 -0.19238944 2.566
0.20259617 -0.19238944 2.566
0.20688872 -0.19246441 2.5669999
0.2108556 -0.19223948 2.5639999
0.21506427 -0.19223948 2.5639999
0.21944401 -0.19238944 2.566
0.24444035 -0.19553846 2.608
0.2486259 -0.19546349 2.6070001
0.25251707 -0.19516356 2.6029999
0.25540867 -0.1941139 2.589
0.25835457 -0.19313921 2.576
0.25993267 -0.19118981 2.55
0.2609075 -0.18886556 2.5190001
0.2630432 -0.18744101 2.5
-0.16159843 -0.20441811 2.668
-0.15698333 -0.20411162 2.664
-0.15243866 -0.20388177 2.661
-0.14795946 -0.20372853 2.6589999
-0.14354084 -0.20365192 2.658
-0.13902079 -0.20342205 2.655
-0.13466273 -0.20342205 2.655
-0.13030469 -0.20342205 2.655
-0.12604152 -0.2035753 2.6570001
-0.12168019 -0.2035753 2.6570001
-0.11705393 -0.20311558 2.651
-0.097279899 -0.19828863 2.5880001
-0.093031831 -0.19828863 2.5880001
-0.088749446 -0.198212 2.5869999
-0.084503017 -0.198212 2.5869999
-0.080194548 -0.19805877 2.585
-0.075980775 -0.19813539 2.586
-0.071708255 -0.19805877 2.585
-0.067386813 -0.19782892 2.582
0.029754328 -0.19560698 2.553
0.033905059 -0.19537713 2.55
0.038090754 -0.19537713 2.55
0.042293031 -0.19545375 2.5510001
0.046498589 -0.19553035 2.552
0.050687566 -0.19553035 2.552
0.054919548 -0.1956836 2.5539999
0.059227537 -0.19606669 2.559
0.063378431 -0.19591345 2.5569999
0.067681335 -0.19621994 2.5610001
0.094984204 -0.1919293 2.5050001
0.099372946 -0.19246562 2.5120001
0.10415548 -0.19369154 2.5280001
0.10894769 -0.19484079 2.543
0.11347778 -0.19545375 2.5510001
0.11780348 -0.1956836 2.5539999
0.12204352 -0.19576022 2.5550001
0.1260892 -0.19553035 2.552
0.13012502 -0.1953005 2.549
0.13425639 -0.19522388 2.5480001
0.13811281 -0.19476418 2.5420001
0.14200549 -0.19438107 2.5369999
0.145997 -0.19415122 2.5339999
0.14997867 -0.19392136 2.5309999
0.15388958 -0.1936149 2.527
0.157975 -0.19353828 2.526
0.16244219 -0.19392136 2.5309999
0.16686 -0.19422786 2.5350001
0.171156 -0.19438107 2.5369999
0.17545857 -0.19453432 2.539
0.1800507 -0.19499403 2.5450001
0.18495207 -0.19576022 2.5550001
0.18959016 -0.19621994 2.5610001
0.19424792 -0.19667962 2.5669999
0.1988481 -0.19706273 2.572
0.2030699 -0.19706273 2.572
0.20809767 -0.19782892 2.582
0.21167798 -0.19721594 2.5739999
0.21581919 -0.19713934 2.573
0.24743962 -0.2022728 2.6400001
0.25291747 -0.2031922 2.652
0.25610647 -0.2022728 2.6400001
0.25807226 -0.20043394 2.6159999
0.25925723 -0.19805877 2.585
0.26085007 -0.19606669 2.559
0.26215041 -0.19392136 2.5309999
0.2635693 -0.1919293 2.5050001
-0.16208299 -0.20942526 2.6760001
-0.15733691 -0.20895569 2.6700001
-0.15272507 -0.20864265 2.6659999
-0.14823769 -0.20848612 2.664
-0.14370286 -0.20825134 2.661
-0.13923022 -0.20809482 2.6589999
-0.13506851 -0.20840788 2.6630001
-0.13074639 -0.20848612 2.664
-0.12661077 -0.20887741 2.6689999
-0.12250452 -0.20934699 2.675
-0.093211561 -0.20292962 2.5929999
-0.088886678 -0.20277311 2.5910001
-0.084601007 -0.20269485 2.5899999
-0.080287613 -0.20253833 2.5880001
-0.076039538 -0.20253833 2.5880001
-0.071791478 -0.20253833 2.5880001
-0.067491204 -0.2023818 2.586
0.029789289 -0.20003399 2.556
0.03393165 -0.19972095 2.552
0.038105696 -0.19964269 2.5510001
0.042293031 -0.19964269 2.5510001
0.04651681 -0.19979921 2.553
0.05070743 -0.19979921 2.553
0.054941058 -0.19995573 2.5550001
0.059296973 -0.20050356 2.562
0.063502371 -0.20050356 2.562
0.06791918 -0.20112963 2.5699999
0.099452063 -0.19674703 2.5139999
0.10448508 -0.19846877 2.536
0.10924759 -0.19956443 2.55
0.11392261 -0.2004253 2.5610001
0.11826473 -0.20066006 2.5639999
0.12237788 -0.20050356 2.562
0.12638564 -0.20019051 2.5580001
0.13038026 -0.19987746 2.5539999
0.13451983 -0.19979921 2.553
0.13838446 -0.19932964 2.5469999
0.14217342 -0.1987818 2.54
0.14628509 -0.19870356 2.539
0.15045273 -0.19870356 2.539
0.15455948 -0.19862531 2.5380001
0.15847531 -0.19831225 2.5339999
0.163084 -0.19886008 2.5409999
0.16778152 -0.19948617 2.549
0.17216797 -0.19972095 2.552
0.17642604 -0.19979921 2.553
0.18625505 -0.20136441 2.573
0.19084866 -0.20175572 2.5780001
0.19545867 -0.20214701 2.5829999
0.20008509 -0.20253833 2.5880001
0.20441212 -0.20261659 2.589
0.20866182 -0.20261659 2.589
0.21340497 -0.20308615 2.595
0.24531625 -0.20848612 2.664
0.25015768 -0.20887741 2.6689999
0.25511095 -0.20934699 2.675
0.25988984 -0.20966002 2.6789999
0.26093313 -0.20699917 2.645
0.2621657 -0.20457311 2.6140001
0.262481 -0.20152093 2.575
0.26328975 -0.19893835 2.5420001
0.2643058 -0.19659053 2.5120001
-0.16747086 -0.21509789 2.6919999
-0.1626281 -0.21453856 2.6849999
-0.15769047 -0.21381947 2.6760001
-0.15295424 -0.21334006 2.6700001
-0.14846025 -0.21318024 2.668
-0.14381087 -0.21278073 2.6630001
-0.1392826 -0.21254101 2.6600001
-0.13516994 -0.21294053 2.665
-0.13089363 -0.21310034 2.6670001
-0.1266582 -0.21334006 2.6700001
-0.093427248 -0.20766696 2.599
-0.089058205 -0.20742725 2.596
-0.084764339 -0.20734735 2.595
-0.080380686 -0.20702773 2.5910001
-0.076127686 -0.20702773 2.5910001
-0.071819216 -0.20686793 2.589
-0.067543402 -0.20678803 2.5880001
-0.063319787 -0.20686793 2.589
0.029777637 -0.20415124 2.5550001
0.033905059 -0.20375173 2.55
0.03807582 -0.20367183 2.549
0.042259872 -0.20367183 2.549
0.046480369 -0.20383164 2.5510001
0.050667707 -0.20383164 2.5510001
0.054898053 -0.20399143 2.553
0.059273832 -0.20463067 2.5610001
0.063576728 -0.20495027 2.5650001
0.10941895 -0.20407133 2.5539999
0.11414502 -0.20503017 2.566
0.11835698 -0.20503017 2.566
0.12252118 -0.20495027 2.5650001
0.12653387 -0.20463067 2.5610001
0.13058448 -0.20439096 2.5580001
0.13483599 -0.20447084 2.559
0.13871045 -0.20399143 2.553
0.1426212 -0.20359193 2.5480001
0.14674601 -0.20351201 2.5469999
0.15110454 -0.20375173 2.55
0.19225521 -0.20750713 2.5969999
0.1966694 -0.20766696 2.599
0.20124477 -0.20798656 2.6029999
0.20559643 -0.20806648 2.6040001
0.21011254 -0.20830619 2.6070001
0.24706587 -0.21437879 2.6830001
0.25184479 -0.2146984 2.687
0.25635073 -0.21477827 2.688
0.26115099 -0.21509789 2.6919999
0.26468194 -0.21437879 2.6830001
0.26517448 -0.21126257 2.6440001
0.26543713 -0.20806648 2.6040001
0.26525769 -0.20463067 2.5610001
-0.16815519 -0.22041538 2.7030001
-0.16323379 -0.219763 2.6949999
-0.15827975 -0.21902913 2.6860001
-0.15324065 -0.21813212 2.675
-0.14862719 -0.21780594 2.671
-0.14413488 -0.21764284 2.6689999
-0.13943969 -0.21715359 2.6630001
-0.13522065 -0.2173982 2.6659999
-0.13094272 -0.21756132 2.668
-0.1265159 -0.21747975 2.6670001
-0.089229733 -0.21209782 2.6010001
-0.084960327 -0.21209782 2.6010001
-0.080504775 -0.21160854 2.595
-0.076157063 -0.2113639 2.592
-0.071902432 -0.2113639 2.592
-0.067543402 -0.21103773 2.5880001
-0.063319787 -0.21111928 2.589
-0.05909289 -0.21120082 2.5899999
0.029742671 -0.20810212 2.552
0.033865172 -0.2076944 2.5469999
0.038031004 -0.20761284 2.546
0.042226713 -0.2076944 2.5469999
0.046443928 -0.20785749 2.549
0.05062798 -0.20785749 2.549
0.054898053 -0.20818366 2.553
0.059250683 -0.20875446 2.5599999
0.063576728 -0.20916221 2.5650001
0.10954748 -0.20850983 2.5569999
0.114234 -0.20940684 2.5680001
0.11844924 -0.20940684 2.5680001
0.12252118 -0.20916221 2.5650001
0.12658326 -0.20891757 2.562
0.13073762 -0.20883602 2.5610001
0.13509944 -0.20908065 2.5639999
0.13909078 -0.20875446 2.5599999
0.14334887 -0.20883602 2.5610001
0.14761025 -0.20891757 2.562
0.20232716 -0.21340252 2.6170001
0.24798673 -0.21959993 2.6930001
0.25259459 -0.219763 2.6949999
0.25701833 -0.219763 2.6949999
0.26173306 -0.22000764 2.698
0.26586571 -0.219763 2.6949999
0.26848418 -0.2182952 2.677
0.26880094 -0.21503343 2.6370001
-0.16890171 -0.22585215 2.7149999
-0.16402119 -0.22526984 2.7079999
-0.15910472 -0.22460435 2.7
-0.15409996 -0.22377248 2.6900001
-0.14901671 -0.22277425 2.678
-0.14462091 -0.22277425 2.678
-0.13980623 -0.22210875 2.6700001
-0.13537282 -0.22202554 2.6689999
-0.13094272 -0.22194238 2.668
-0.12646845 -0.22177598 2.6659999
-0.089469872 -0.21695118 2.608
-0.085156314 -0.21686798 2.6070001
-0.080659889 -0.21628566 2.5999999
-0.076274596 -0.21595292 2.596
-0.071902432 -0.21562016 2.592
-0.067595601 -0.21545379 2.5899999
-0.06334424 -0.21545379 2.5899999
-0.059115708 -0.215537 2.5910001
0.029672746 -0.21179359 2.546
0.033798691 -0.21146084 2.5420001
0.038001131 -0.2116272 2.5439999
0.042176977 -0.2116272 2.5439999
0.046425708 -0.21195996 2.5480001
0.050647844 -0.21212633 2.55
0.054898053 -0.21237589 2.553
0.05934326 -0.21329094 2.5639999
0.063651085 -0.21362369 2.5680001
0.11427848 -0.21370688 2.569
0.11854148 -0.21379006 2.5699999
0.12261671 -0.21354051 2.5669999
0.1267809 -0.21345732 2.566
0.13094181 -0.21337414 2.5650001
0.13541558 -0.21379006 2.5699999
0.13952544 -0.21362369 2.5680001
0.14396459 -0.21395643 2.572
0.24269798 -0.22734952 2.733
0.24546562 -0.22576895 2.714
0.24863133 -0.22460435 2.7
0.25315696 -0.22468753 2.701
0.25759053 -0.22468753 2.701
0.26221809 -0.2248539 2.7030001
0.26655629 -0.22477072 2.7019999
0.27028942 -0.22418842 2.6949999
-0.16927497 -0.23081937 2.721
-0.16432405 -0.23014075 2.7130001
-0.15957615 -0.2297166 2.7079999
-0.15478738 -0.22920761 2.7019999
-0.14968446 -0.22818968 2.6900001
-0.14483692 -0.22751103 2.6819999
-0.14017275 -0.2270869 2.677
-0.13567714 -0.22691722 2.675
-0.13128626 -0.22691722 2.675
-0.12684795 -0.22683242 2.674
-0.08943557 -0.22114888 2.6070001
-0.085123643 -0.22106403 2.6059999
-0.080597848 -0.22038542 2.598
-0.076245219 -0.22013095 2.595
-0.071846947 -0.21970677 2.5899999
-0.067465104 -0.21928264 2.585
-0.063295327 -0.21953714 2.5880001
-0.059001625 -0.21936746 2.586
0.02963778 -0.21571983 2.543
0.0337588 -0.21538053 2.539
0.037911508 -0.21529569 2.5380001
0.042094085 -0.21538053 2.539
0.046316385 -0.215635 2.5420001
0.050528668 -0.21580465 2.5439999
0.054769032 -0.21605915 2.5469999
0.059204396 -0.21699226 2.5580001
0.063651085 -0.21784057 2.5680001
0.11826473 -0.21750122 2.5639999
0.12242565 -0.21741642 2.563
0.12668209 -0.21750122 2.5639999
0.13089076 -0.21750122 2.5639999
0.13546829 -0.21809506 2.5710001
0.13957977 -0.21792538 2.569
0.2389092 -0.23251595 2.7409999
0.24180996 -0.23098902 2.723
0.24492297 -0.2297166 2.7079999
0.24881551 -0.22920761 2.7019999
0.25325069 -0.22920761 2.7019999
0.25739977 -0.22895311 2.6989999
0.26250914 -0.22954695 2.7060001
0.26695091 -0.22954695 2.7060001
0.27049002 -0.22878349 2.697
-0.1700215 -0.23632513 2.733
-0.16541429 -0.23615217 2.7309999
-0.1607547 -0.23589276 2.7279999
-0.15616226 -0.23571983 2.7260001
-0.15113123 -0.23485512 2.7160001
-0.14613301 -0.2339904 2.7060001
-0.14074872 -0.23243392 2.688
-0.13633651 -0.23243392 2.688
-0.13182615 -0.232261 2.6860001
-0.12722746 -0.2319151 2.6819999
-0.085417628 -0.22612154 2.615
-0.08081501 -0.22525683 2.605
-0.076362744 -0.22473802 2.599
-0.071985655 -0.22439212 2.595
-0.067595601 -0.22395977 2.5899999
-0.0633687 -0.22404625 2.5910001
-0.059115708 -0.22404625 2.5910001
-0.054947406 -0.22439212 2.595
0.033679023 -0.21903093 2.533
0.037866693 -0.21920387 2.5350001
0.042094085 -0.21954978 2.539
0.046334606 -0.21989565 2.543
0.050608125 -0.22032802 2.5480001
0.054898053 -0.22076036 2.553
0.059320118 -0.22162504 2.563
0.063700654 -0.22223035 2.5699999
0.11396709 -0.2215386 2.562
0.11812637 -0.22145213 2.5610001
0.12228234 -0.22136565 2.5599999
0.12658326 -0.2215386 2.562
0.13083971 -0.22162504 2.563
0.13546829 -0.22231685 2.5710001
0.24189878 -0.23554689 2.724
0.24474208 -0.2339904 2.7060001
0.2487234 -0.23355806 2.701
0.25315696 -0.23355806 2.701
0.25759053 -0.23355806 2.701
0.26250914 -0.2339904 2.7060001
0.2671482 -0.23416334 2.7079999
0.27059031 -0.23329863 2.698
-0.17039478 -0.24134161 2.7390001
-0.16614111 -0.24169406 2.743
-0.1615797 -0.24160594 2.7420001
-0.15713611 -0.24169406 2.743
-0.15218846 -0.24098913 2.7349999
-0.14715907 -0.24010801 2.7249999
-0.14221486 -0.239315 2.7160001
-0.13684371 -0.23772895 2.698
-0.13212061 -0.23720028 2.6919999
-0.12746464 -0.23675974 2.687
-0.080939092 -0.2298869 2.609
-0.076392122 -0.22909388 2.5999999
-0.072013393 -0.22874144 2.596
-0.067647792 -0.22838898 2.592
-0.0633687 -0.22830088 2.5910001
-0.059138518 -0.22838898 2.592
-0.054989755 -0.22882953 2.5969999
0.033612546 -0.22274977 2.5280001
0.037836816 -0.22319032 2.533
0.04212724 -0.22389521 2.5409999
0.046371046 -0.22424768 2.5450001
0.050647844 -0.22468823 2.55
0.054962561 -0.22521693 2.556
0.05934326 -0.22592182 2.5639999
0.063626297 -0.22618614 2.5669999
0.12233011 -0.22565748 2.5610001
0.12668209 -0.22592182 2.5639999
0.13099286 -0.22609805 2.566
0.18458466 -0.25341308 2.8759999
0.1893713 -0.25350121 2.8770001
0.19395882 -0.25332499 2.875
0.19819424 -0.2527082 2.868
0.23812476 -0.24072482 2.7320001
0.24145475 -0.23957935 2.7190001
0.24447075 -0.23816954 2.7030001
0.24863133 -0.2379052 2.7
0.25315696 -0.2379933 2.701
0.25778127 -0.23816954 2.7030001
0.26250914 -0.23843388 2.7060001
0.26734549 -0.23878632 2.71
0.27129236 -0.23834576 2.7049999
-0.1705814 -0.24610853 2.7420001
-0.16650453 -0.24673681 2.7490001
-0.16205111 -0.24682656 2.75
-0.15776627 -0.24718557 2.7539999
-0.15313444 -0.24700609 2.7520001
-0.14823912 -0.24637778 2.7449999
-0.14315736 -0.24539047 2.734
-0.13790885 -0.24404415 2.7190001
-0.13290587 -0.24305685 2.7079999
-0.12793902 -0.24206956 2.697
-0.076509655 -0.23372233 2.6040001
-0.07206887 -0.2331838 2.598
-0.067699991 -0.23282477 2.5940001
-0.063417614 -0.23273501 2.5929999
-0.059184153 -0.23282477 2.5940001
-0.055032101 -0.23327355 2.599
0.042176977 -0.228337 2.5439999
0.046443928 -0.22878578 2.549
0.05070743 -0.2291448 2.553
0.055005569 -0.2295936 2.5580001
0.059366409 -0.23022188 2.5650001
0.1224734 -0.2301321 2.5639999
0.18030162 -0.258764 2.8829999
0.18484138 -0.25849473 2.8800001
0.18956877 -0.25849473 2.8800001
0.19409375 -0.25822547 2.8770001
0.19840157 -0.25768694 2.8710001
0.20240669 -0.25678939 2.8610001
0.23638153 -0.24341588 2.7119999
0.24038912 -0.24296708 2.707
0.24401851 -0.24215931 2.698
0.24844714 -0.24215931 2.698
0.2529695 -0.24224903 2.6989999
0.25787663 -0.24269783 2.704
0.26280019 -0.24314661 2.7090001
0.2677401 -0.24359538 2.714
0.27189413 -0.24332613 2.711
-0.16656509 -0.2513423 2.75
-0.16234575 -0.25179929 2.7550001
-0.15793812 -0.25198206 2.757
-0.15385781 -0.25271326 2.7650001
-0.14926518 -0.25262186 2.7639999
-0.14415225 -0.25161648 2.753
-0.13866964 -0.24987993 2.734
-0.13344575 -0.24850899 2.7190001
-0.1289352 -0.24841756 2.7179999
-0.12442795 -0.24832617 2.717
-0.072179832 -0.2378155 2.602
-0.067804389 -0.2374499 2.598
-0.063466527 -0.23717572 2.595
-0.059252597 -0.2373585 2.5969999
-0.055074453 -0.23772413 2.6010001
0.04651681 -0.23333704 2.553
0.050786875 -0.2337026 2.5569999
0.05504857 -0.23397683 2.5599999
0.17569113 -0.26368091 2.885
0.18036416 -0.2635895 2.8840001
0.18490557 -0.26331532 2.881
0.18956877 -0.26322392 2.8800001
0.19402628 -0.2628583 2.8759999
0.19840157 -0.26240134 2.8710001
0.20247744 -0.26157877 2.862
0.23056161 -0.24640685 2.6960001
0.23498696 -0.24640685 2.6960001
0.23923467 -0.24622405 2.694
0.24374719 -0.24631542 2.6949999
0.24844714 -0.24658963 2.698
0.25278208 -0.24649823 2.697
0.25806737 -0.24732082 2.7060001
0.26309118 -0.24786918 2.7119999
0.26813468 -0.24841756 2.7179999
-0.16626224 -0.25539279 2.7449999
-0.16211003 -0.25595105 2.7509999
-0.15788084 -0.25641626 2.756
-0.15369087 -0.25697449 2.7620001
-0.14904918 -0.25678837 2.76
-0.14430934 -0.25641626 2.756
-0.13912614 -0.2552067 2.743
-0.13393654 -0.25390416 2.7290001
-0.12917238 -0.25334594 2.723
-0.067726091 -0.24143691 2.595
-0.063490987 -0.24152994 2.596
-0.059298232 -0.24180907 2.599
-0.055074453 -0.24199517 2.6010001
0.09211231 -0.27334937 2.938
0.09686891 -0.27316332 2.9360001
0.10165356 -0.27307028 2.9349999
0.10661632 -0.27344239 2.9389999
0.11136471 -0.27325636 2.937
0.17107406 -0.2686044 2.8870001
0.17593472 -0.26879045 2.8889999
0.18048924 -0.26851133 2.8859999
0.18509811 -0.26832527 2.8840001
0.18970039 -0.26813918 2.882
0.19416121 -0.26776704 2.878
0.19847065 -0.26720878 2.872
0.20254818 -0.26637143 2.8629999
0.22412315 -0.24860094 2.6719999
0.22936431 -0.24953133 2.6819999
0.23411533 -0.24990351 2.6860001
0.23870187 -0.25008956 2.688
0.24347585 -0.2504617 2.6919999
0.24853924 -0.251113 2.6989999
0.25306323 -0.25120604 2.7
0.25844884 -0.25213644 2.71
0.26347923 -0.25269467 2.7160001
0.2685293 -0.25325289 2.7219999
-0.16234575 -0.26084712 2.7550001
-0.15805271 -0.26122585 2.7590001
-0.15380216 -0.26169926 2.7639999
-0.14888717 -0.26103649 2.757
-0.14446643 -0.26122585 2.7590001
-0.13943046 -0.26027906 2.7490001
-0.13413285 -0.25876415 2.733
-0.11102169 -0.26794821 2.8299999
-0.10686505 -0.26917908 2.8429999
-0.10255788 -0.2701259 2.8529999
-0.098012052 -0.27050465 2.8570001
-0.06785658 -0.24617149 2.5999999
-0.06356436 -0.24607684 2.599
-0.059389491 -0.24645557 2.6029999
-0.055265021 -0.24711832 2.6099999
0.092018254 -0.27788976 2.9349999
0.096736923 -0.27760571 2.9319999
0.10151502 -0.27751103 2.931
0.10643495 -0.27779508 2.934
0.11128887 -0.27788976 2.9349999
0.11606697 -0.27779508 2.934
0.17125183 -0.27362913 2.8900001
0.17599563 -0.27362913 2.8900001
0.1805518 -0.27334508 2.8870001
0.18509811 -0.27306104 2.8840001
0.18976623 -0.27296633 2.8829999
0.19429614 -0.27268231 2.8800001
0.19860888 -0.27211422 2.8740001
0.20630701 -0.24740236 2.6129999
0.2109991 -0.24787579 2.618
0.21677668 -0.24958004 2.6359999
0.22311664 -0.25185239 2.6600001
0.2285091 -0.25298858 2.6719999
0.23350517 -0.25365132 2.6789999
0.23834665 -0.25412473 2.684
0.24311408 -0.25450346 2.688
0.24798673 -0.2549769 2.6930001
0.25278208 -0.2553556 2.697
0.25806737 -0.25620776 2.7060001
0.26309118 -0.2567758 2.7119999
-0.15352394 -0.26575637 2.7590001
-0.14888717 -0.2655637 2.757
-0.14409989 -0.26508209 2.7520001
-0.13917685 -0.26431149 2.744
-0.13413285 -0.26325193 2.733
-0.11110017 -0.27278796 2.832
-0.10697782 -0.27413648 2.846
-0.10266573 -0.27509972 2.8559999
-0.098114967 -0.27548501 2.8599999
-0.093420416 -0.27548501 2.8599999
-0.088601783 -0.27509972 2.8559999
-0.063588813 -0.25044093 2.5999999
-0.059457943 -0.25101885 2.6059999
-0.055455588 -0.25227106 2.619
-0.03756566 -0.27904898 2.8970001
-0.032957617 -0.28030118 2.9100001
-0.028306892 -0.28155339 2.9230001
-0.023565235 -0.28222767 2.9300001
-0.018768588 -0.28242031 2.9319999
-0.013989178 -0.28309456 2.9389999
-0.0043555074 -0.2840578 2.9489999
0.00048414007 -0.28347987 2.9430001
0.0053077019 -0.28309456 2.9389999
0.010142264 -0.28338352 2.9419999
0.014996854 -0.28386515 2.947
0.019847663 -0.2840578 2.9489999
0.024705043 -0.28425044 2.951
0.029609039 -0.28482839 2.957
0.034486115 -0.28502104 2.9590001
0.092018254 -0.28270927 2.9349999
0.096703932 -0.28232399 2.931
0.10151502 -0.28232399 2.931
0.10639866 -0.28251663 2.9330001
0.11128887 -0.28270927 2.9349999
0.11610653 -0.28270927 2.9349999
0.17137033 -0.27856737 2.892
0.17599563 -0.27837473 2.8900001
0.18048924 -0.27798942 2.8859999
0.18503392 -0.27770045 2.8829999
0.18970039 -0.27760413 2.882
0.19409375 -0.27712253 2.8770001
0.19847065 -0.27664089 2.872
0.20591225 -0.25121152 2.608
0.21091852 -0.25207844 2.6170001
0.21661222 -0.25371593 2.6340001
0.22278111 -0.25583503 2.6559999
0.22808152 -0.25689459 2.6670001
0.23315656 -0.25766519 2.675
0.23808025 -0.25824311 2.681
0.2429332 -0.25872475 2.6860001
0.24789464 -0.25930268 2.6919999
0.25306323 -0.26007327 2.7
0.2582581 -0.26084384 2.7079999
0.26347923 -0.26161444 2.7160001
-0.15319008 -0.26969907 2.753
-0.14867117 -0.26969907 2.753
-0.14409989 -0.26960111 2.7520001
-0.13902469 -0.26852345 2.7409999
-0.13398562 -0.26744583 2.73
-0.12940958 -0.26724991 2.7279999
-0.12120446 -0.2689153 2.7449999
-0.11098247 -0.27714443 2.829
-0.1070154 -0.27890781 2.8469999
-0.10270168 -0.27988747 2.8570001
-0.09818358 -0.2803773 2.862
-0.093518414 -0.28047526 2.8629999
-0.088818945 -0.28047526 2.8629999
-0.084001951 -0.28008339 2.859
-0.05948076 -0.2553961 2.6070001
-0.037604563 -0.2841 2.9000001
-0.032934964 -0.28488371 2.908
-0.028258471 -0.28586337 2.918
-0.023516977 -0.28645116 2.924
-0.018755786 -0.28703895 2.9300001
-0.013974898 -0.28762677 2.9360001
-0.0091618393 -0.28782266 2.938
-0.0043451684 -0.28821453 2.9419999
0.000483482 -0.28792062 2.9389999
0.005305896 -0.28782266 2.938
0.010135369 -0.28801861 2.9400001
0.014976499 -0.28831249 2.9430001
0.019827474 -0.28860641 2.9460001
0.024688298 -0.28890029 2.9489999
0.029558973 -0.28919417 2.9519999
0.03442784 -0.28939012 2.954
0.0392235 -0.28899825 2.95
0.091986902 -0.28743082 2.934
0.096703932 -0.28713691 2.931
0.10154966 -0.28723487 2.9319999
0.10636239 -0.28723487 2.9319999
0.11128887 -0.28752875 2.9349999
0.11614609 -0.28762677 2.9360001
0.12088297 -0.28743082 2.934
0.17142959 -0.28341421 2.8929999
0.17593472 -0.28302237 2.8889999
0.18036416 -0.28253254 2.8840001
0.18484138 -0.2821407 2.8800001
0.18943711 -0.28194475 2.878
0.19389135 -0.28155288 2.8740001
0.19791783 -0.28057322 2.8640001
0.20224984 -0.25627777 2.6159999
0.2058333 -0.2553961 2.6070001
0.21124089 -0.2567676 2.6210001
0.21694116 -0.25843301 2.638
0.22294886 -0.26039234 2.658
0.22808152 -0.26127401 2.6670001
0.23306939 -0.26195976 2.674
0.23816904 -0.2627435 2.6819999
0.24302363 -0.26323333 2.687
0.24798673 -0.26382113 2.6930001
0.25315696 -0.26460484 2.701
0.25863957 -0.26568246 2.7119999
0.26347923 -0.26607433 2.7160001
-0.15280056 -0.27352247 2.7460001
-0.14834714 -0.27362207 2.747
-0.14389043 -0.27372167 2.7479999
-0.13902469 -0.27302438 2.7409999
-0.13393654 -0.2718291 2.7290001
-0.12936214 -0.2716299 2.727
-0.12502329 -0.27192873 2.73
-0.12040967 -0.2716299 2.727
-0.11780402 -0.27601263 2.7709999
-0.11489044 -0.27999693 2.8110001
-0.1107863 -0.28129181 2.8239999
-0.10686505 -0.28318438 2.8429999
-0.10262978 -0.28437969 2.855
-0.09818358 -0.28507692 2.862
-0.093551084 -0.28527614 2.8640001
-0.088880993 -0.28537574 2.865
-0.084090099 -0.28507692 2.862
-0.037604563 -0.28886202 2.9000001
-0.032923639 -0.28955927 2.9070001
-0.028239099 -0.29045573 2.9159999
-0.023484807 -0.29085416 2.9200001
-0.01872378 -0.29135221 2.925
-0.013965379 -0.29224867 2.934
-0.009146248 -0.29214907 2.9330001
-0.004339261 -0.29264712 2.938
0.00048315301 -0.29254749 2.937
0.0053040902 -0.29254749 2.937
0.010135369 -0.29284632 2.9400001
0.01496632 -0.29294592 2.941
0.019814014 -0.29324475 2.944
0.024663186 -0.29344398 2.9460001
0.02953895 -0.29384238 2.95
0.034381222 -0.29384238 2.95
0.039170317 -0.29344398 2.9460001
0.091986902 -0.29224867 2.934
0.096703932 -0.29194984 2.931
0.1015843 -0.29214907 2.9330001
0.10636239 -0.29204944 2.9319999
0.11125096 -0.29224867 2.934
0.11606697 -0.29224867 2.934
0.12084179 -0.29214907 2.9330001
0.18445629 -0.28627223 2.8740001
0.18910798 -0.2861726 2.8729999
0.19355403 -0.28577417 2.869
0.19750319 -0.28467852 2.858
0.19818282 -0.26087227 2.619
0.2020179 -0.26027462 2.6129999
0.20591225 -0.25977659 2.608
0.21148267 -0.26137033 2.6240001
0.21743457 -0.26336247 2.6440001
0.22328436 -0.2651554 2.6619999
0.22833808 -0.26595226 2.6700001
0.23324372 -0.26654994 2.6760001
0.23825786 -0.26724717 2.6830001
0.24347585 -0.26814362 2.6919999
0.248263 -0.26854208 2.6960001
0.25353187 -0.26943853 2.7049999
0.25892568 -0.27043459 2.7149999
0.26396427 -0.27103224 2.721
-0.15224412 -0.27701908 2.7360001
-0.1476991 -0.27691785 2.7349999
-0.14331447 -0.27712035 2.737
-0.13861895 -0.27671537 2.733
-0.13374022 -0.27590534 2.7249999
-0.12907751 -0.27550033 2.721
-0.12502329 -0.27641159 2.73
-0.12032136 -0.27590534 2.7249999
-0.1107863 -0.28592905 2.8239999
-0.10648916 -0.28684029 2.8329999
-0.10227031 -0.28805533 2.845
-0.098012052 -0.28927031 2.8570001
-0.093518414 -0.2898778 2.8629999
-0.088849969 -0.28997907 2.8640001
-0.084119476 -0.2898778 2.8629999
-0.03756566 -0.2933203 2.8970001
-0.03291231 -0.29423153 2.9059999
-0.028239099 -0.29524404 2.9159999
-0.023484807 -0.29564902 2.9200001
-0.01871738 -0.29605404 2.924
-0.013946339 -0.29666153 2.9300001
-0.009146248 -0.29696527 2.9330001
-0.0043377839 -0.29737028 2.937
0.00048298851 -0.29726905 2.9360001
0.0053040902 -0.29737028 2.937
0.010128475 -0.29747152 2.938
0.014961231 -0.29767406 2.9400001
0.019800553 -0.29787654 2.9419999
0.02463807 -0.29797778 2.9430001
0.029498897 -0.29828152 2.9460001
0.03434626 -0.29838279 2.947
0.039130427 -0.29797778 2.9430001
0.092018254 -0.29716778 2.9349999
0.096736923 -0.29686403 2.9319999
0.1015843 -0.29696527 2.9330001
0.10636239 -0.29686403 2.9319999
0.11125096 -0.29706654 2.934
0.11606697 -0.29706654 2.934
0.19788015 -0.26476789 2.615
0.20132211 -0.26365414 2.6040001
0.20567538 -0.26375541 2.605
0.21156327 -0.26578039 2.625
0.21776351 -0.26810911 2.648
0.22353601 -0.26983035 2.665
0.2285091 -0.27053913 2.6719999
0.23341805 -0.2711466 2.678
0.23834665 -0.27175412 2.684
0.24356632 -0.27266535 2.6930001
0.24881551 -0.27357662 2.7019999
0.25418794 -0.27458909 2.7119999
0.25949788 -0.27550033 2.721
-0.15241104 -0.28182051 2.7390001
-0.14791512 -0.28182051 2.7390001
-0.14347154 -0.28192341 2.74
-0.13872036 -0.28140894 2.7349999
-0.13383837 -0.2805858 2.727
-0.12907751 -0.27996844 2.721
-0.12470272 -0.28017423 2.723
-0.1201006 -0.27986556 2.72
-0.11584841 -0.28038001 2.7249999
-0.11280598 -0.2839812 2.76
-0.11004095 -0.28861135 2.8050001
-0.10607569 -0.29036051 2.822
-0.10191083 -0.2916981 2.835
-0.09766899 -0.29293281 2.8469999
-0.093224443 -0.29365307 2.8540001
-0.088570766 -0.29375595 2.855
-0.083913811 -0.29385883 2.8559999
-0.05530737 -0.26875323 2.612
-0.032867011 -0.29859185 2.902
-0.028190682 -0.29951787 2.911
-0.023444591 -0.29992944 2.915
-0.018691774 -0.30044392 2.9200001
-0.01392254 -0.30095837 2.925
-0.0091306558 -0.30126706 2.928
-0.0043289224 -0.30157572 2.931
0.000482495 -0.30178151 2.9330001
0.0053022844 -0.3020902 2.9360001
0.010125027 -0.30219308 2.937
0.014951053 -0.30229595 2.938
0.019787094 -0.30250174 2.9400001
0.024621326 -0.30260465 2.941
0.029458841 -0.30270752 2.9419999
0.034287985 -0.30270752 2.9419999
0.039077241 -0.30239883 2.9389999
0.092018254 -0.30198729 2.9349999
0.096736923 -0.3016786 2.9319999
0.1015843 -0.30178151 2.9330001
0.10639866 -0.30178151 2.9330001
0.11125096 -0.30188438 2.934
0.11606697 -0.30188438 2.934
0.19704777 -0.26793012 2.6040001
0.2007809 -0.26720986 2.5969999
0.20543851 -0.26772434 2.602
0.21156327 -0.27009085 2.625
0.21776351 -0.27245733 2.648
0.22345214 -0.27410364 2.664
0.22876568 -0.27523541 2.675
0.23402815 -0.27626434 2.6849999
0.23879065 -0.27667591 2.6889999
0.24356632 -0.27708751 2.6930001
0.24881551 -0.2780135 2.7019999
0.25418794 -0.27904242 2.7119999
0.25940251 -0.27986556 2.72
-0.14802313 -0.28652722 2.7409999
-0.14347154 -0.2864227 2.74
-0.13887253 -0.28621361 2.7379999
-0.13403468 -0.28548187 2.7309999
-0.12921983 -0.28475013 2.724
-0.12470272 -0.28464562 2.723
-0.11992398 -0.28391388 2.7160001
-0.11550832 -0.28401843 2.717
-0.10133567 -0.29468086 2.819
-0.097325929 -0.29656246 2.8369999
-0.092995778 -0.29760781 2.8469999
-0.088415645 -0.29792139 2.8499999
-0.083884425 -0.29844406 2.855
-0.055265021 -0.27283329 2.6099999
-0.051000375 -0.27293783 2.6110001
-0.028132575 -0.30367076 2.905
-0.023444591 -0.30471611 2.915
-0.018685371 -0.30513424 2.9189999
-0.01391778 -0.30565691 2.924
-0.0091244197 -0.305866 2.9260001
-0.0043244916 -0.30607504 2.928
0.00048216598 -0.30638865 2.931
0.0052950601 -0.30649319 2.9319999
0.010114685 -0.30670226 2.934
0.014940876 -0.30691132 2.9360001
0.019780362 -0.30722493 2.9389999
0.024629695 -0.30753854 2.9419999
0.02944883 -0.30743399 2.941
0.034276333 -0.30743399 2.941
0.039077241 -0.30722493 2.9389999
0.092143662 -0.30722493 2.9389999
0.09686891 -0.30691132 2.9360001
0.10172284 -0.30701587 2.937
0.10643495 -0.30670226 2.934
0.11125096 -0.30670226 2.934
0.11606697 -0.30670226 2.934
0.11835698 -0.26823381 2.566
0.12256894 -0.26823381 2.566
0.1267809 -0.26823381 2.566
0.13083971 -0.2679202 2.563
0.19674507 -0.27178794 2.5999999
0.20070359 -0.27136981 2.596
0.20591225 -0.27262422 2.608
0.21180506 -0.27471492 2.628
0.21801025 -0.27711919 2.651
0.22370377 -0.27879173 2.6670001
0.22885121 -0.27973256 2.6760001
0.23394102 -0.28056881 2.684
0.23923467 -0.28161412 2.694
0.24419942 -0.28224134 2.7
0.249368 -0.2830776 2.7079999
0.2550315 -0.28443652 2.721
0.26054698 -0.28558645 2.7320001
-0.1435239 -0.29102814 2.7409999
-0.13892326 -0.29081583 2.7390001
-0.134231 -0.29039112 2.7349999
-0.12936214 -0.28954169 2.727
-0.12470272 -0.28911701 2.723
-0.11974736 -0.28794906 2.7119999
-0.11550832 -0.28847995 2.717
-0.10047294 -0.29676169 2.7950001
-0.096708424 -0.29930988 2.819
-0.092636473 -0.30111489 2.836
